628431.8788233486 1012550.5869656141 121.3 21 02 44 4652
628430.1142643138 1012552.5385246349 118.5 21 02 48 4652
628423.3916168509 1012551.753682148 117.1 21 02 52 4652
628424.6864594882 1012548.9380631854 121.1 21 02 56 4652
628420.6766725025 1012548.5822400281 126.3 21 03 00 4652
628427.3740755167 1012557.1408672164 118.8 21 03 08 4652
628423.9146248937 1012553.1265889658 118.4 21 03 12 4652
628415.6740543795 1012549.4064135537 115.9 21 03 16 4652
628422.8950037111 1012552.4044992903 115.5 21 03 20 4652
628421.2903572327 1012555.8715420677 112.9 21 03 24 4652
628421.1597501753 1012562.2516603488 93.0 21 03 28 4652
628428.1764349438 1012557.0881821945 118.1 21 03 32 4652
628424.4979635872 1012556.224760385 107.3 21 03 36 4652
628427.305341293 1012547.8518126237 122.2 21 03 40 4652
628429.1974204744 1012550.6224902285 130.4 21 03 44 4652
628429.3924531721 1012554.8583884094 124.5 21 03 48 4652
628428.2347544818 1012562.8164843103 114.9 21 03 52 4652
628420.2762688756 1012566.9816720812 121.5 21 03 56 4652
628432.2429964222 1012556.8802258408 143.1 21 04 00 4652
628420.4161762116 1012557.7375277152 120.4 21 04 08 4652
628413.5475877494 1012557.9032122601 120.7 21 04 12 4652
628401.3503439914 1012554.391354918 103.1 21 04 16 4652
628332.3180859908 1012547.6540433705 136.7 21 04 20 4652
628261.6623233093 1012567.1414662595 111.8 21 04 24 4652
628188.0117350295 1012585.0711612762 142.4 21 04 28 4652
628100.9063371428 1012611.1846398144 94.9 21 04 32 4652
628042.029120406 1012634.61410003 86.1 21 04 36 4652
627996.8615755378 1012632.2673090816 68.2 21 04 40 4652
627945.4788528857 1012631.9240957445 77.8 21 04 44 4652
627897.5123023136 1012686.3628373798 71.4 21 04 48 4652
627864.8491537342 1012704.7021350506 0.1 21 04 52 4652
627864.7943817563 1012847.3626817614 107.5 21 05 04 4652
627863.5217537399 1012853.517935363 96.0 21 05 08 4652
627869.4371772216 1012818.4717874128 76.7 21 05 12 4652
627868.6832036906 1012800.1681703288 144.6 21 05 16 4652
627856.9186517367 1012808.9876729072 97.6 21 05 20 4652
627835.0094367283 1012794.6408041376 63.6 21 05 24 4652
627840.3817861801 1012856.174457453 54.0 21 05 28 4652
627769.2695395651 1012911.7769745947 87.4 21 05 32 4652
627743.3469510779 1012901.6082055422 44.9 21 05 36 4652
627730.2707618083 1012921.8797020138 98.9 21 05 40 4652
627740.7941055004 1012912.8792287514 113.9 21 05 44 4652
627762.4192033787 1012896.1186665687 165.2 21 05 48 4652
627780.1563187686 1012882.1321912885 90.0 21 05 52 4652
627798.7144520662 1012886.1178081555 128.7 21 05 56 4652
627796.922748649 1012865.8867298776 99.2 21 06 00 4652
627828.655811128 1012917.6417663463 82.7 21 06 08 4652
627851.7512148131 1012915.1620277312 135.0 21 18 32 4652
627846.87839122 1012920.0450133582 124.9 21 18 36 4652
627870.8164786022 1012945.8104360953 104.7 21 18 40 4652
627867.7908273996 1012953.7624918574 97.2 21 18 44 4652
627876.0286127958 1012951.5332832399 107.4 21 18 48 4652
627870.490848337 1012954.7553976725 94.4 21 18 52 4652
627879.9230479738 1012943.3739340971 131.5 21 18 56 4652
627869.9695178932 1012956.2576149553 97.4 21 19 00 4652
627872.2751699626 1012943.2828461899 124.7 21 19 08 4652
627884.5366069842 1012913.3329015934 162.9 21 19 12 4652
627795.170039227 1012932.1744445649 89.8 21 19 16 4652
627780.0420879866 1012917.4735457175 115.3 21 19 20 4652
627754.8869724291 1012863.6387713493 123.1 21 19 24 4652
627769.2737333059 1012862.8780221008 144.8 21 19 28 4652
627741.1943952946 1012870.6164263921 114.0 21 19 32 4652
627737.0415572228 1012866.9317158586 98.9 21 19 36 4652
627757.5291273462 1012858.7375084982 144.9 21 19 40 4652
627729.8180657302 1012871.5306669809 85.9 21 19 44 4652
627744.1992451488 1012865.6942186035 123.1 21 19 48 4652
627736.7750426731 1012867.7933872906 112.0 21 20 00 4652
627744.0183886563 1012867.2528277027 107.5 21 20 08 4652
627761.4999640235 1012864.3346862424 49.1 21 20 12 4652
627744.6494584641 1012865.7951963211 124.7 21 20 16 4652
627738.5629063721 1012868.8165100273 113.0 21 20 28 4652
627728.1415533016 1012870.0545219259 117.2 21 20 32 4652
627743.9763992125 1012866.6444959878 103.7 21 20 44 4652
627726.8023456915 1012866.2130313449 127.2 21 20 48 4652
627677.859872417 1012879.3578437221 129.8 21 20 56 4652
627761.2959680645 1012862.8522402099 104.6 21 21 00 4652
627733.3194553496 1012862.573852862 121.1 21 21 08 4652
627734.2190960646 1012863.0190839069 128.6 21 21 12 4652
627737.6636231219 1012868.2606989183 109.1 21 21 16 4652
627739.4716061604 1012869.8589084102 110.2 21 21 20 4652
627742.4476735763 1012870.4435461664 109.8 21 21 24 4652
627740.8158664452 1012868.7353246674 111.2 21 21 28 4652
627745.5703616987 1012866.4616585509 104.8 21 21 32 4652
627737.7558912735 1012866.9119076715 111.5 21 21 36 4652
627736.6099112846 1012871.2872163669 118.8 21 21 40 4652
627739.831032118 1012867.4494018428 110.4 21 21 44 4652
627740.6186619707 1012871.9525973988 112.2 21 21 48 4652
627739.6378454029 1012866.022281496 112.4 21 21 52 4652
627737.1819444684 1012867.6951790118 116.1 21 21 56 4652
627740.1187934335 1012870.2148590443 107.6 21 22 00 4652
627742.7870518393 1012867.4368368986 117.5 21 22 08 4652
627742.1816038976 1012867.7666238936 109.1 21 22 12 4652
627740.4760916939 1012865.062934405 118.6 21 22 16 4652
627741.6581144646 1012866.5374822457 102.4 21 22 20 4652
627729.3059463449 1012856.5784486887 117.1 21 22 24 4652
627742.0563338967 1012869.1263666254 105.2 21 22 28 4652
627736.9438540813 1012863.1605848263 125.7 21 22 32 4652
627740.5331627039 1012867.8055300055 122.8 21 22 36 4652
627731.9717653267 1012864.7590042722 121.1 21 22 40 4652
627738.5984805571 1012868.0093829675 120.8 21 23 00 4652
627741.4341770799 1012864.4246597223 113.5 21 23 32 4652
627744.2089475065 1012866.0923419064 113.2 21 23 56 4652
627746.2837859439 1012870.1241981698 136.4 22 00 00 4652
627741.085366268 1012870.350679472 101.9 22 00 08 4652
627735.045169826 1012855.6238776924 111.6 22 00 12 4652
627740.099817404 1012869.2859165181 101.8 22 00 16 4652
627743.6271949542 1012872.6921537048 98.3 22 00 28 4652
627759.6485635117 1012882.9726773804 120.1 22 00 32 4652
627774.6259827745 1012845.6557251882 114.1 22 00 36 4652
627835.8573901753 1012814.4707419497 129.9 22 00 40 4652
627841.0621482527 1012771.5046863693 112.9 22 00 44 4652
627855.4768364795 1012772.3143063723 125.7 22 00 48 4652
627865.6583828605 1012739.9027266749 139.0 22 00 52 4652
627898.3065297176 1012685.4254665904 144.3 22 00 56 4652
627902.4586015355 1012679.157887704 148.2 22 01 00 4652
627940.8347698938 1012606.851380317 134.7 22 01 08 4652
627964.1407809998 1012620.8489581168 117.9 22 01 12 4652
627998.5016494553 1012604.2624060311 111.6 22 01 16 4652
628055.3119838359 1012553.9881305041 137.9 22 01 20 4652
628045.6667530697 1012515.7289834043 126.5 22 01 24 4652
628052.5102138761 1012513.1414248726 137.1 22 01 28 4652
628067.7402882011 1012509.906478947 141.0 22 01 32 4652
628089.8760454211 1012501.8393891107 118.3 22 01 36 4652
628080.2877258958 1012496.9095890087 102.5 22 01 40 4652
628094.3846731923 1012477.1059185604 145.9 22 01 44 4652
628123.2659178075 1012469.5693656364 139.6 22 01 48 4652
628170.1914892313 1012438.1283516613 131.6 22 01 52 4652
628171.5533009219 1012421.4239413434 147.2 22 01 56 4652
628179.6292014484 1012431.8889806516 142.4 22 02 00 4652
628246.894902051 1012424.3110536813 142.9 22 02 08 4652
628250.5175066069 1012439.0190488838 137.7 22 02 12 4652
628260.1380699256 1012450.9487893158 151.6 22 02 16 4652
628264.9485111538 1012445.0040593415 145.6 22 02 20 4652
628260.7538926697 1012447.4232441672 126.6 22 02 24 4652
628273.7152931858 1012459.286415979 182.4 22 02 28 4652
628351.35448832 1012472.0339825309 137.1 22 02 32 4652
628376.4183995837 1012516.5911301121 123.3 22 02 36 4652
628417.0436696167 1012567.5572559526 115.8 22 02 40 4652
628433.8504797232 1012562.6909660725 135.8 22 02 44 4652
628442.735074567 1012564.3564248027 177.3 22 02 48 4652
628418.5963869918 1012559.7773728529 122.7 22 02 52 4652
628432.785361061 1012545.5252848484 128.0 22 02 56 4652
628437.0497557583 1012555.4582792121 140.0 22 03 00 4652
628424.9523456831 1012558.4268043177 121.3 22 03 08 4652
628424.0425400506 1012554.3433989267 131.6 22 03 12 4652
628430.5313706037 1012552.683634923 134.3 22 03 16 4652
628434.7094003902 1012551.9894829136 130.7 22 03 20 4652
628429.4083975388 1012563.4837837025 116.2 22 03 24 4652
628425.9225889129 1012557.4347231723 122.8 22 03 28 4652
628420.7308658487 1012565.7335793385 119.3 22 03 32 4652
628431.270598304 1012558.5357878215 135.7 22 03 36 4652
628424.8721916858 1012552.6541988469 126.0 22 03 44 4652
628430.8204181899 1012555.0399558856 127.7 22 03 48 4652
628424.8599115122 1012566.5874059792 118.0 22 03 52 4652
628440.7329345524 1012544.7217359127 147.8 22 03 56 4652
628437.2730164863 1012544.2349993619 146.5 22 04 00 4652
628362.4140066224 1012585.7032203078 138.9 22 04 12 4652
628311.9783462984 1012608.4077527528 131.3 22 04 16 4652
628262.9749689692 1012582.5496942298 139.9 22 04 20 4652
628179.0198705737 1012582.5981697692 113.5 22 04 24 4652
628132.9444298522 1012585.7220579081 132.5 22 04 28 4652
628082.1963629175 1012620.1142873893 122.5 22 04 32 4652
627996.9402483397 1012614.7515055983 97.0 22 04 36 4652
627960.9824599408 1012612.0585937964 121.9 22 04 40 4652
627959.0006554065 1012609.8405578043 94.2 22 04 44 4652
627948.2164137047 1012611.1326375643 117.6 22 04 48 4652
627917.0676557305 1012630.0849987029 113.8 22 04 52 4652
627903.9983291861 1012671.9640356066 139.6 22 04 56 4652
627889.2152880586 1012713.6827177459 105.6 22 05 00 4652
627853.9750117168 1012764.3918408983 117.5 22 05 08 4652
627863.4877204933 1012830.0635656174 111.4 22 05 12 4652
627887.5919637627 1012848.6417544383 123.7 22 05 16 4652
627945.7821930114 1012870.9794373414 116.8 22 05 20 4652
627879.4206287158 1012867.6905706327 120.2 22 05 24 4652
627846.4326121712 1012871.0008377573 123.3 22 05 28 4652
627793.4737080156 1012882.4406321049 107.6 22 05 32 4652
627797.0871160486 1012883.0273344057 112.3 22 05 36 4652
627849.9996500053 1012865.538606757 141.4 22 05 40 4652
627860.4960613623 1012847.8906280138 92.5 22 05 44 4652
627894.9619569448 1012866.7013811533 113.7 22 05 48 4652
627898.5384720713 1012936.434369849 95.2 22 05 52 4652
627835.8387894258 1012969.7487078545 4.8 22 05 56 4652
627850.1104008474 1012980.7976863194 92.2 22 06 00 4652
627865.402378786 1012948.1704183534 106.9 22 18 40 4652
627863.0473135234 1012952.6413372896 101.7 22 18 44 4652
627868.1000984416 1012960.0666176401 105.3 22 18 48 4652
627867.4167130343 1012953.9160953528 100.4 22 18 52 4652
627869.3531094065 1012953.1814651712 101.4 22 18 56 4652
627878.9452228341 1012953.5110625089 120.9 22 19 00 4652
627868.7706044004 1012953.2127553239 102.3 22 19 08 4652
627864.9885902492 1012957.1925014768 101.2 22 19 12 4652
627865.7703292213 1012960.1143723318 98.0 22 19 16 4652
627861.790083194 1012960.8313336872 107.3 22 19 20 4652
627863.501281227 1012951.5812266441 100.6 22 19 24 4652
627861.4989614243 1012955.710485035 100.0 22 19 28 4652
627849.4941415831 1012953.8913014671 100.9 22 19 32 4652
627859.9070042457 1012955.2740694929 97.4 22 19 36 4652
627872.9837304978 1012955.2389603618 107.4 22 19 40 4652
627878.8579712168 1012960.101416885 98.7 22 19 44 4652
627886.8253453732 1012963.3340448785 89.5 22 19 48 4652
627885.2899120242 1012965.8060954538 103.2 22 19 52 4652
627878.8170707277 1012965.9510275043 104.2 22 19 56 4652
627894.6179682037 1012962.8395242624 125.8 22 20 00 4652
627990.07930836 1012938.4446488427 95.0 22 20 08 4652
628038.3117045773 1012913.8527636976 98.3 22 20 12 4652
628088.3758628799 1012903.8857024979 89.8 22 20 16 4652
628088.7568431427 1012894.8303346714 95.4 22 20 20 4652
628112.7461560003 1012857.277274496 104.9 22 20 24 4652
628143.7448631029 1012843.9200005622 106.2 22 20 28 4652
628143.2723858871 1012843.9074110354 109.7 22 20 32 4652
628146.2618730359 1012836.9615406627 104.8 22 20 36 4652
628140.8764532582 1012837.242654785 123.4 22 20 40 4652
628138.2847381542 1012836.7366392066 125.1 22 20 44 4652
628156.0628978538 1012840.6535488158 107.8 22 20 48 4652
628147.4341131753 1012838.0600945125 117.0 22 20 52 4652
628141.8875976944 1012843.969271407 102.9 22 20 56 4652
628159.4998605836 1012838.0439144537 117.9 22 21 00 4652
628149.9068165355 1012837.9907024967 96.7 22 21 08 4652
628147.3182556389 1012836.5115816068 100.9 22 21 12 4652
628143.3899291542 1012827.9840935048 103.2 22 21 16 4652
628147.1542600858 1012809.131134953 100.5 22 21 20 4652
628128.3253121885 1012770.0238781546 131.3 22 21 24 4652
628129.6931359323 1012720.9413028961 104.7 22 21 28 4652
628101.037828181 1012699.4952234962 99.1 22 21 32 4652
628073.9333056975 1012708.1543963762 113.2 22 21 36 4652
628073.2602793064 1012705.5977905495 117.8 22 21 40 4652
628067.0601191003 1012716.5363061848 147.0 22 21 44 4652
628072.2723344447 1012722.2370623033 135.0 22 21 48 4652
628068.1475510697 1012726.8570547928 131.3 22 21 52 4652
628073.105742411 1012729.5602377245 124.7 22 21 56 4652
628074.8646515965 1012729.3447725736 126.8 22 22 00 4652
628078.6778194713 1012722.5453214878 123.7 22 22 08 4652
628075.3596386607 1012715.6232478794 123.6 22 22 12 4652
628071.9770433245 1012718.4099960703 125.2 22 22 16 4652
628065.1570896572 1012723.9280251757 128.5 22 22 20 4652
628070.4152499216 1012718.8362041522 117.2 22 22 24 4652
628026.1135265258 1012696.864010234 127.7 22 22 28 4652
627978.4734117632 1012684.3799902905 109.4 22 22 32 4652
627949.35396017 1012680.6918673122 134.3 22 22 36 4652
627922.6566547949 1012665.3895232858 148.2 22 22 40 4652
627898.1079102722 1012685.6791607843 148.0 22 22 44 4652
627889.246804991 1012720.9258844638 135.4 22 22 48 4652
627869.5999885672 1012737.5490371548 173.8 22 22 52 4652
627842.0692100665 1012772.7132768467 136.1 22 22 56 4652
627850.7914763989 1012807.5745366751 164.8 22 23 00 4652
627779.7502477755 1012898.9723821848 121.1 22 23 08 4652
627765.89619059 1012894.714465313 40.1 22 23 12 4652
627770.5687037638 1012904.2063674626 124.1 22 23 16 4652
627761.1428948989 1012886.4165789211 119.1 22 23 20 4652
627772.4889675027 1012898.2633100497 133.2 22 23 24 4652
627758.6678933839 1012883.7988664998 115.5 22 23 28 4652
627761.1090894991 1012876.4752283383 142.2 22 23 32 4652
627736.9506310179 1012871.2662010215 115.0 22 23 36 4652
627732.6370561258 1012869.7151867623 121.0 22 23 40 4652
627742.0953739668 1012867.2466141143 119.1 23 00 00 4652
627758.6317077553 1012843.9895524567 122.6 23 00 16 4652
627769.3487445684 1012846.4680283349 120.8 23 00 20 4652
627765.3815846529 1012880.5363042987 125.8 23 00 24 4652
627780.249923289 1012890.5698326855 137.8 23 00 28 4652
627778.350975949 1012893.3171646603 134.5 23 00 32 4652
627766.687480498 1012894.6838483086 136.0 23 00 36 4652
627761.5997551703 1012877.6600318264 131.1 23 00 40 4652
627745.6532850843 1012864.6041640409 116.7 23 00 44 4652
627750.1507373372 1012867.0625389017 87.4 23 00 48 4652
627723.1571845405 1012865.2502575081 147.5 23 00 52 4652
627740.0892020569 1012865.769403346 110.2 23 01 00 4652
627729.962070775 1012908.5868569266 98.2 23 01 12 4652
627739.9398405745 1012935.7999303892 53.8 23 01 16 4652
627747.8243919512 1012930.6612711233 102.7 23 01 20 4652
627760.5636023816 1012919.4563412918 109.6 23 01 24 4652
627765.0966797195 1012904.0891593384 104.7 23 01 28 4652
627767.8334806461 1012893.7033801724 95.4 23 01 32 4652
627779.7447435538 1012900.6753135291 119.8 23 01 36 4652
627772.6242456757 1012893.8073285422 125.6 23 01 40 4652
627771.4040052881 1012893.9581982914 126.7 23 01 44 4652
627770.3105558385 1012888.8789914125 126.5 23 01 48 4652
627776.9303696493 1012887.4628322982 126.8 23 01 52 4652
627760.2051253495 1012877.3680139915 111.2 23 01 56 4652
627725.2164782863 1012867.2916025198 97.7 23 02 00 4652
627733.1187298958 1012863.4799693065 117.2 23 02 36 4652
627733.2698347786 1012837.1179248912 168.9 23 02 40 4652
627723.6705726295 1012825.3874333333 152.3 23 02 44 4652
627688.9591878033 1012828.1172455514 71.7 23 02 48 4652
627712.3529345456 1012831.9415054554 89.5 23 02 52 4652
627699.9948193091 1012823.8181102698 116.4 23 02 56 4652
627678.203986448 1012783.0096666808 108.6 23 03 00 4652
627706.0079826121 1012751.6612620244 111.9 23 03 12 4652
627733.5742996801 1012814.3060292987 93.7 23 03 16 4652
627735.2321448304 1012865.775826271 88.7 23 03 20 4652
627751.83626896 1012855.5454348082 156.6 23 03 24 4652
627753.5043707892 1012883.428320772 90.8 23 03 28 4652
627753.8860800099 1012891.1259990089 93.4 23 03 32 4652
627764.2055855972 1012866.9973764197 136.3 23 03 36 4652
627769.9335296424 1012886.5334533926 115.3 23 03 40 4652
627772.4900342674 1012911.533046739 53.5 23 03 44 4652
627764.0294587816 1012904.4948603543 97.2 23 03 48 4652
627782.6894036378 1012890.5777176169 109.6 23 03 52 4652
627773.9613912678 1012901.685025291 117.9 23 03 56 4652
627766.7901507249 1012883.3164422831 96.8 23 04 00 4652
627770.6405389521 1012881.9797967203 118.8 23 04 08 4652
627776.0418147092 1012869.988145013 118.0 23 04 12 4652
627781.8363277556 1012889.3253936974 108.8 23 04 16 4652
627769.6136606036 1012890.3032354012 115.8 23 04 20 4652
627794.3978272148 1012882.1118759754 101.7 23 04 24 4652
627798.0159258693 1012891.4455599948 119.7 23 04 32 4652
627829.2366858736 1012890.9272434388 117.0 23 04 36 4652
627849.5033306432 1012937.4589737424 86.2 23 04 40 4652
627853.3121334756 1012965.9680522246 188.8 23 04 44 4652
627867.2001700177 1012973.3002701032 89.7 23 04 48 4652
627865.4857534204 1012952.9699097796 80.8 23 04 52 4652
627868.1962138388 1012964.324302733 103.6 23 04 56 4652
627868.7382465584 1012953.0246627071 54.0 23 05 00 4652
627859.836262847 1012949.9659457565 105.5 23 05 08 4652
627878.4904523401 1012965.0100311298 152.8 23 05 12 4652
627876.7160748545 1012956.4231939052 114.3 23 05 16 4652
627871.0299353207 1012954.5580953812 129.8 23 05 20 4652
627859.0172838736 1012941.5701880602 50.1 23 05 24 4652
627848.1113757158 1012932.9427615803 136.0 23 05 28 4652
627795.8466161988 1012933.6363025282 135.2 23 05 32 4652
627786.7413461062 1012905.076940782 162.6 23 05 36 4652
627777.410273395 1012898.7768310957 147.2 23 05 40 4652
627810.0619940027 1012900.9060141265 116.2 23 18 52 4652
627821.1109682707 1012875.485961319 116.0 23 18 56 4652
627857.0284109008 1012826.0175227602 132.3 23 19 00 4652
627868.5230248581 1012737.5676705502 133.0 23 19 08 4652
627883.3543577451 1012721.6808943966 139.5 23 19 12 4652
627878.5606998529 1012719.066734077 167.6 23 19 16 4652
627872.3562319806 1012717.7639274216 142.0 23 19 20 4652
627888.7415664678 1012717.4520024812 147.1 23 19 24 4652
627885.5282783869 1012729.0526294274 148.4 23 19 28 4652
627878.7378084516 1012732.2596366762 126.5 23 20 00 4652
627951.048713174 1012737.6577084754 158.7 23 22 36 4652
627967.5775627928 1012709.977441957 125.6 23 22 40 4652
627957.8898231772 1012715.4087999573 142.2 23 22 44 4652
627952.1174697807 1012689.2376752613 120.8 23 22 48 4652
627945.7624628559 1012642.7619668058 136.8 23 22 52 4652
627936.5030561644 1012604.1060115857 133.9 23 22 56 4652
627946.3184347397 1012606.7806572149 134.4 23 23 00 4652
628000.3635068606 1012606.1925449389 136.6 23 23 08 4652
628044.589022572 1012570.286252074 130.6 23 23 12 4652
628036.9121002543 1012531.6243300831 142.7 23 23 16 4652
628071.5391784144 1012510.914011527 137.1 23 23 20 4652
628074.4362426244 1012508.7560017965 142.0 23 23 24 4652
628086.0232434338 1012503.9058375935 126.0 23 23 28 4652
628064.8235934429 1012524.9139602376 153.0 23 23 32 4652
628079.7559104336 1012511.8252703614 127.4 23 23 36 4652
628082.8630979601 1012502.4691056089 134.5 23 23 40 4652
628081.9770186419 1012501.227726556 136.1 23 23 44 4652
628075.8380667728 1012493.2570577106 127.8 23 23 48 4652
628085.915282601 1012486.3451934103 137.0 23 23 52 4652
628108.1965958606 1012494.4123812933 147.5 23 23 56 4652
628146.0725974153 1012529.1580677772 138.0 24 00 00 4652
628178.2178079515 1012555.4368182226 136.2 24 00 08 4652
628134.4764809769 1012563.953579388 141.3 24 00 12 4652
628092.6750510348 1012580.8476672549 144.2 24 00 16 4652
628071.7263775195 1012605.8043439962 121.7 24 00 20 4652
628060.7048263705 1012622.6875740039 132.1 24 00 24 4652
628050.0583225363 1012618.7716978069 133.7 24 00 28 4652
628041.6032591027 1012620.2039918713 124.8 24 00 32 4652
628001.2195545831 1012650.6600070589 131.0 24 00 36 4652
628003.8639238697 1012702.796535476 125.0 24 00 40 4652
627988.9114740689 1012756.0814359923 131.4 24 00 44 4652
627937.8660083149 1012777.2141652175 132.7 24 00 48 4652
627909.7241849656 1012790.6471887869 84.6 24 00 52 4652
627887.9632276811 1012805.2066806965 126.7 24 00 56 4652
627822.133005633 1012861.8656710163 138.1 24 01 00 4652
627772.1440497967 1012896.1832704077 115.0 24 01 08 4652
627763.9362818524 1012882.3230473436 114.7 24 01 12 4652
627739.2924054512 1012860.7022146307 123.4 24 01 16 4652
627737.4242980283 1012860.7072368282 116.7 24 01 20 4652
627736.9500150156 1012857.8527121675 99.0 24 01 36 4652
627751.4194243868 1012831.5148149518 102.3 24 01 40 4652
627776.6913767491 1012815.2083633357 122.0 24 01 44 4652
627768.9506889867 1012813.2260617944 112.9 24 01 48 4652
627772.8165542705 1012834.304255781 115.9 24 01 52 4652
627770.648462735 1012842.1263912673 112.8 24 01 56 4652
627744.4556354177 1012810.1501622662 94.1 24 02 00 4652
627685.8426152956 1012734.9315686004 91.4 24 02 08 4652
627680.359337801 1012745.0983782286 76.9 24 02 12 4652
627674.0770303644 1012767.9020241401 108.0 24 02 16 4652
627681.2915958635 1012793.2926189908 96.3 24 02 20 4652
627699.5681779879 1012826.6254916707 85.9 24 02 24 4652
627707.4048959272 1012860.1126404514 80.2 24 02 28 4652
627729.469945132 1012867.0399498846 107.5 24 02 32 4652
627769.7052884137 1012882.3527498478 119.3 24 02 36 4652
627770.3723588908 1012893.5567720585 114.3 24 02 40 4652
627772.0977935384 1012886.6952617168 109.6 24 02 44 4652
627806.3138886199 1012880.8013069653 119.7 24 02 48 4652
627765.6453615178 1012904.3231529244 102.7 24 02 52 4652
627768.0421830826 1012927.729861938 88.0 24 02 56 4652
627794.7190903354 1012935.7005245117 92.6 24 03 00 4652
627871.6420929823 1012945.3597239752 71.5 24 03 08 4652
627870.3474725008 1012944.7252237765 60.1 24 03 12 4652
627879.8998680981 1012950.539517714 88.9 24 03 16 4652
627895.9080586677 1012951.2879671656 57.6 24 03 20 4652
627888.5577930198 1012944.1206448962 95.2 24 03 24 4652
627869.9853277382 1012951.3699793501 98.0 24 03 28 4652
627875.9646624908 1012957.7145626729 79.7 24 03 32 4652
627877.411833802 1012975.7329136202 113.2 24 03 36 4652
627880.3823053666 1012974.6477695558 102.0 24 03 40 4652
627881.3248822014 1012968.6130878334 83.8 24 03 44 4652
627877.0101753002 1012984.4011766113 88.0 24 03 48 4652
627867.4321995962 1012996.6889336345 82.8 24 03 52 4652
627841.2849497863 1012977.8608596605 106.6 24 03 56 4652
627820.5727702816 1012963.7721941682 98.9 24 04 00 4652
627759.2936330091 1012945.1955187934 66.2 24 04 08 4652
627755.7226860472 1012911.0697071565 107.6 24 04 12 4652
627749.282545257 1012870.4877475793 103.6 24 04 16 4652
627736.7630893495 1012868.0919176271 107.4 24 04 20 4652
627731.8660996897 1012870.254543235 83.9 24 04 24 4652
627744.6814954348 1012866.0828106945 100.0 24 04 28 4652
627730.3472306231 1012864.2008501608 100.6 24 04 32 4652
627747.6140347655 1012859.7338732511 97.3 24 04 36 4652
627754.4622763919 1012876.0445985984 109.2 24 04 40 4652
627752.6154018333 1012917.0863358304 135.8 24 04 44 4652
627751.5477168534 1012917.6357910594 134.6 24 04 48 4652
627736.795688296 1012915.8188243414 142.3 24 04 52 4652
627740.1304085451 1012910.831333845 80.4 24 04 56 4652
627728.1645981135 1012910.5383347577 109.1 24 05 00 4652
627733.509310504 1012905.8448488206 147.7 24 05 08 4652
627744.9223672012 1012907.164467441 71.6 24 05 16 4652
627726.970168868 1012899.2994365001 -33.5 24 05 28 4652
627772.6257028651 1012913.7561655556 193.1 24 05 32 4652
627747.4742340009 1012906.3986457809 73.6 24 05 36 4652
627754.4227742137 1012912.071794389 114.2 24 05 40 4652
627759.928638093 1012915.3185558456 122.5 24 05 44 4652
627744.2768843039 1012930.0858439041 114.3 24 05 48 4652
627742.6720767305 1012923.4236758801 80.2 24 05 52 4652
627767.1309670148 1012924.0666821715 123.2 24 05 56 4652
627810.2310279643 1012869.0149648046 116.9 24 06 00 4652
627864.5803054988 1012947.5263886983 94.2 24 18 52 4652
627877.6023059477 1012947.4247550635 91.3 24 18 56 4652
627893.4512800786 1012922.6616157478 61.2 24 19 00 4652
627882.8783804773 1012960.556747349 88.5 24 19 08 4652
627880.7932847218 1012973.2889508898 93.6 24 19 12 4652
627887.0574005449 1012966.3315449009 39.4 24 19 16 4652
627913.4582803159 1012957.7142264779 94.0 24 19 20 4652
627972.4539487254 1012951.8342600726 92.2 24 19 24 4652
628013.7844315626 1012961.4670037056 76.6 24 19 28 4652
628036.3423066307 1012911.2034944721 89.2 24 19 32 4652
628100.1544897135 1012860.2111083386 103.9 24 19 36 4652
628125.2916480708 1012855.0288984365 98.5 24 19 40 4652
628138.7261493778 1012853.1151512745 99.6 24 19 44 4652
628146.4705503881 1012836.9953914146 116.5 24 19 48 4652
628145.4200669547 1012839.0156232261 116.3 24 19 52 4652
628128.6427853345 1012858.556242223 84.4 24 19 56 4652
628147.8697892902 1012839.2557840797 107.3 24 20 00 4652
628149.1176747844 1012837.3578315307 102.0 24 20 08 4652
628137.4247244542 1012827.4560860443 73.9 24 20 12 4652
628140.1688268968 1012841.9732382979 88.6 24 20 16 4652
628144.7650326074 1012841.0813692944 91.9 24 20 20 4652
628138.9821282501 1012831.7738019136 45.9 24 20 24 4652
628141.4769094597 1012841.8447804984 114.8 24 20 28 4652
628130.3551926451 1012794.7011290846 121.7 24 20 32 4652
628116.3805807346 1012732.6861246403 133.8 24 20 36 4652
628105.9507312258 1012706.0022575605 111.3 24 20 40 4652
628095.9352072867 1012639.6100241251 153.6 24 20 44 4652
628116.0635745028 1012582.9360095919 149.4 24 20 48 4652
628159.0018553828 1012540.7667605558 141.3 24 20 52 4652
628131.8638246197 1012485.11176393 142.5 24 20 56 4652
628166.1949737326 1012447.2383519807 145.5 24 21 00 4652
628160.7442119215 1012437.1467396572 152.7 24 21 08 4652
628154.0790716596 1012445.7394200868 139.2 24 21 12 4652
628196.2921379181 1012434.1214356441 119.0 24 21 20 4652
628213.8696160895 1012405.0844873842 117.8 24 21 28 4652
628227.659792783 1012415.5348868857 125.7 24 21 32 4652
628227.8013018825 1012412.560710126 119.3 24 21 36 4652
628237.2174297802 1012416.3731165843 122.4 24 21 40 4652
628258.0998985138 1012405.1173064818 135.4 24 21 44 4652
628267.0510274946 1012396.4435880883 128.7 24 21 48 4652
628299.3241434756 1012396.8578869003 124.7 24 21 52 4652
628329.5614929748 1012384.5929922 126.2 24 21 56 4652
628378.7018406304 1012405.5638556767 112.3 24 22 00 4652
628381.8623399095 1012447.5176019991 131.8 24 22 08 4652
628429.4742555113 1012512.7492852384 139.3 24 22 12 4652
628420.035764287 1012532.755971558 134.9 24 22 16 4652
628424.0196660061 1012564.7711436104 151.5 24 22 20 4652
628430.2559689513 1012559.6604222972 148.1 24 22 24 4652
628436.8499102503 1012559.4717324412 149.1 24 22 28 4652
628389.102642525 1012586.7297995226 149.2 24 22 32 4652
628379.6797731395 1012608.7048893824 146.6 24 22 36 4652
628405.2076757287 1012598.31572099 138.1 24 22 40 4652
628461.6966348148 1012586.2688868542 127.3 24 22 44 4652
628462.4159234546 1012594.8744517283 116.3 24 22 48 4652
628446.2868076111 1012580.5570678366 93.0 24 22 52 4652
628424.4042021818 1012588.48102871 152.1 24 22 56 4652
628417.7590920343 1012584.1246614157 140.8 24 23 00 4652
628425.9387487305 1012555.8424045601 127.8 24 23 16 4652
628435.2177571091 1012547.7226945863 143.3 24 23 20 4652
628427.2365722221 1012555.4927589202 130.1 24 23 24 4652
628429.5382158512 1012560.7307302422 123.8 24 23 28 4652
628417.0966366 1012561.3980482601 132.8 24 23 32 4652
628439.364580234 1012549.8703818277 130.2 24 23 36 4652
628442.227226614 1012548.1656684389 125.5 24 23 40 4652
628427.0713819399 1012562.3703809648 142.4 24 23 44 4652
628429.1908129115 1012556.0409537787 140.9 24 23 48 4652
628392.2494477031 1012585.5015053125 123.0 24 23 52 4652
628401.0278484152 1012586.0276227754 145.5 24 23 56 4652
628349.4897912354 1012603.0335937917 122.9 25 00 00 4652
628244.7080814566 1012576.8176330711 143.3 25 00 08 4652
628194.1422903064 1012582.061107891 141.5 25 00 12 4652
628132.1142931374 1012563.8242864348 147.6 25 00 16 4652
628070.7139650437 1012548.5642365802 150.3 25 00 20 4652
628007.7941123613 1012605.5309939302 133.7 25 00 24 4652
627941.3227874234 1012608.8544781072 136.7 25 00 32 4652
627945.2026539547 1012598.4171118193 141.5 25 00 36 4652
627894.4621639751 1012644.1220342522 128.7 25 00 40 4652
627882.7599196082 1012654.0475480236 147.9 25 00 44 4652
627867.8227301044 1012706.06084071 133.4 25 00 48 4652
627861.3654505276 1012738.7609166212 132.8 25 00 52 4652
627847.6770283327 1012754.6292785027 114.8 25 00 56 4652
627829.0357168282 1012786.5490679325 127.6 25 01 00 4652
627745.9606485574 1012871.5054177658 121.1 25 01 20 4652
627744.7913421557 1012903.5038096291 112.5 25 01 24 4652
627739.1555471785 1012913.2609680215 103.2 25 01 28 4652
627738.6107570105 1012905.0209158541 87.5 25 01 32 4652
627734.1358099288 1012912.603378096 93.7 25 01 36 4652
627742.4691207345 1012935.2220235319 93.5 25 01 40 4652
627751.7855542846 1012922.2477916705 111.7 25 01 44 4652
627773.5357839746 1012897.3709863968 112.1 25 01 48 4652
627769.3511104599 1012896.738207381 107.2 25 01 52 4652
627766.6140808398 1012890.1940181258 121.5 25 01 56 4652
627773.169908877 1012891.5753537118 120.5 25 02 00 4652
627782.8291148877 1012884.7505445388 119.5 25 02 08 4652
627774.6149808944 1012886.4601188238 127.6 25 02 12 4652
627779.4005090282 1012891.5844334599 117.9 25 02 16 4652
627810.138489941 1012884.0426401552 115.2 25 02 20 4652
627845.286534106 1012929.7710054837 112.3 25 02 24 4652
627857.3792605626 1012955.3764749548 118.1 25 02 28 4652
627855.4097200643 1012942.5758666294 68.6 25 02 32 4652
627879.5204952364 1012952.3186470189 111.0 25 02 36 4652
627860.6842034699 1012946.0098833683 88.2 25 02 40 4652
627872.3031356646 1012948.2259139859 105.0 25 02 44 4652
627861.4143702982 1012951.2869656299 91.8 25 02 48 4652
627868.4195325968 1012949.639848678 98.4 25 02 52 4652
627912.1502825792 1012964.6102587252 161.9 25 02 56 4652
627898.1923051164 1012955.1214655465 142.5 25 03 00 4652
627863.6575624356 1012954.224621518 91.2 25 03 08 4652
627860.3814553125 1012958.0733070285 106.9 25 03 12 4652
627859.0140192569 1012952.7720473643 100.7 25 03 16 4652
627868.2233622158 1012955.9312814305 101.0 25 03 20 4652
627869.8327463511 1012954.377293027 94.7 25 03 24 4652
627867.3849274745 1012953.5510747539 108.1 25 03 28 4652
627864.0039523381 1012945.6557031261 112.7 25 03 32 4652
627879.8933083192 1012945.7734488721 95.2 25 03 36 4652
627867.3407147188 1012950.2334973329 101.7 25 03 40 4652
627861.8463712996 1012940.031202382 93.4 25 03 44 4652
627859.8760082029 1012927.4849278152 145.7 25 03 48 4652
627858.6651116227 1012928.1444982614 142.9 25 03 52 4652
627836.1614204192 1012931.1458767063 99.5 25 03 56 4652
627798.1183267317 1012924.3548322443 108.9 25 04 00 4652
627773.8646213969 1012897.6263857675 149.5 25 04 08 4652
627770.9167855745 1012901.9074053783 128.6 25 04 12 4652
627771.6751451548 1012901.8656239505 112.9 25 04 16 4652
627772.160208375 1012877.5835800625 128.4 25 04 24 4652
627768.438824481 1012879.8052913176 130.3 25 04 28 4652
627753.9693235384 1012875.5675068916 130.3 25 04 32 4652
627745.0468559081 1012868.6384146246 124.5 25 04 36 4652
627716.9587536221 1012858.6838325553 138.4 25 04 40 4652
627707.1813776203 1012878.2803906853 105.0 25 04 44 4652
627702.537771709 1012832.617519873 119.9 25 04 48 4652
627704.2182174284 1012822.6706504679 103.7 25 04 52 4652
627684.373235166 1012795.2156234155 137.1 25 04 56 4652
627673.5376366973 1012788.6121163749 153.9 25 05 00 4652
627675.0018059589 1012801.4000160366 144.4 25 05 08 4652
627713.0466143226 1012794.0918412342 196.6 25 05 12 4652
627747.6944661792 1012885.8533888832 102.6 25 05 24 4652
627745.0892627679 1012886.1214233983 104.0 25 05 28 4652
627746.9022281861 1012882.7766743137 96.8 25 05 32 4652
627741.7192681292 1012888.4216790897 111.1 25 05 36 4652
627771.4846352015 1012913.2106301211 105.5 25 05 40 4652
627808.4672051918 1012891.1476032207 168.5 25 05 44 4652
627798.7972137795 1012887.7104438045 125.5 25 05 48 4652
627786.9753907358 1012887.0640336671 115.5 25 05 52 4652
627804.6745415697 1012881.426319682 37.3 25 06 00 4652
627838.6834437007 1012773.0893635083 128.4 25 18 57 4652
627845.3564719564 1012751.8240726296 134.4 25 19 00 4652
627889.4106512223 1012646.4831910566 135.3 25 19 08 4652
627896.4912238147 1012648.7177141634 145.9 25 19 12 4652
627912.6771236063 1012638.7293001389 151.3 25 19 16 4652
627936.2883555971 1012599.1402232574 113.6 25 19 20 4652
627963.8643809019 1012621.3677951645 122.8 25 19 24 4652
628027.736681309 1012579.0560690856 135.8 25 19 28 4652
628063.4278247126 1012538.5441016898 141.2 25 19 32 4652
628068.9163681517 1012513.216665089 153.3 25 19 36 4652
628074.6563044356 1012508.6682494846 141.6 25 19 40 4652
628079.3597883772 1012505.2001737362 130.3 25 19 44 4652
628083.5570019374 1012501.9737374787 136.3 25 19 48 4652
628078.6012975785 1012491.7068112904 134.9 25 19 52 4652
628119.9815898528 1012472.5444189114 137.3 25 19 56 4652
628156.871884942 1012452.0184247684 102.5 25 20 00 4652
628176.2759459203 1012439.1764746992 122.8 25 20 08 4652
628173.3606092545 1012433.4057450033 152.7 25 20 12 4652
628169.210955671 1012425.3419844287 164.7 25 20 16 4652
628173.0263711809 1012431.4252578848 153.7 25 20 20 4652
628173.0463420121 1012432.0445774773 148.2 25 20 24 4652
628177.8271958872 1012428.4440645355 145.4 25 20 28 4652
628179.7742548452 1012427.8200614788 137.9 25 20 32 4652
628179.2233687283 1012431.655444851 142.6 25 20 36 4652
628180.3961232947 1012432.599185968 147.4 25 20 40 4652
628180.5840078571 1012432.2680511766 145.2 25 20 44 4652
628175.0506126942 1012437.502727188 144.3 25 20 48 4652
628176.1479148972 1012437.9928406336 140.1 25 20 52 4652
628177.9098124136 1012436.8595638326 145.1 25 20 56 4652
628175.6590327714 1012439.6499747381 143.3 25 21 00 4652
628223.8965834305 1012406.9084079467 120.7 25 21 08 4652
628258.2205991498 1012398.3943574767 126.3 25 21 12 4652
628254.5103636126 1012397.1548746481 131.7 25 21 16 4652
628261.2152355133 1012400.0406708209 129.1 25 21 20 4652
628265.0410918816 1012406.2898603223 127.3 25 21 24 4652
628264.4625022865 1012408.4996092189 123.4 25 21 28 4652
628267.8088558345 1012403.346316267 124.6 25 21 32 4652
628260.9091751277 1012409.7044802691 117.6 25 21 36 4652
628257.0647607734 1012412.5671265575 125.8 25 21 40 4652
628250.4002204312 1012424.3555940986 129.3 25 21 44 4652
628257.5574974607 1012450.3875145912 139.2 25 21 48 4652
628261.5598707601 1012453.0323277848 128.6 25 21 52 4652
628326.0410516707 1012467.1083815555 126.0 25 21 56 4652
628364.4033064947 1012487.4250158825 124.6 25 22 00 4652
628434.6238260942 1012534.3514831713 151.9 25 22 08 4652
628411.2391197919 1012554.7662650954 128.9 25 22 12 4652
628423.3252559868 1012572.188895523 130.9 25 22 16 4652
628424.1870103776 1012557.2300406586 146.5 25 22 20 4652
628435.5199823752 1012559.5558783055 143.3 25 22 24 4652
628432.4114547236 1012559.1476901504 152.1 25 22 28 4652
628423.7787024067 1012557.7595050881 134.7 25 22 32 4652
628425.9416938722 1012561.7032243928 149.0 25 22 36 4652
628439.2911758912 1012558.9378125214 147.3 25 22 40 4652
628429.8335478608 1012561.1518983872 139.2 25 22 44 4652
628432.6314098865 1012555.709325171 128.5 25 22 48 4652
628423.7663849893 1012558.168615991 132.5 25 22 52 4652
628425.8168302515 1012549.3951173663 143.2 25 22 56 4652
628429.8111395293 1012554.5169459849 148.0 25 23 00 4652
628423.9167448705 1012562.6255316717 138.1 25 23 08 4652
628418.0669202205 1012580.6976399763 115.2 25 23 12 4652
628382.0541905214 1012594.9120500335 139.2 25 23 16 4652
628369.090733389 1012624.328827559 130.3 25 23 20 4652
628351.6809488228 1012632.1567624856 136.6 25 23 24 4652
628313.8951796165 1012627.257023982 136.8 25 23 28 4652
628299.0801615703 1012614.3372932252 136.3 25 23 32 4652
628247.5168013403 1012588.3493091906 141.1 25 23 36 4652
628215.4323040663 1012607.7628625969 131.6 25 23 40 4652
628152.403944093 1012610.002403004 124.6 25 23 44 4652
628116.1744897933 1012636.888944782 120.9 25 23 48 4652
628110.5650225427 1012682.5739886956 120.7 25 23 52 4652
628120.7501629367 1012706.780043945 124.8 25 23 56 4652
628129.6453331191 1012745.8661570015 121.8 26 00 00 4652
628141.3927060586 1012837.3106767759 103.3 26 00 08 4652
628144.2278060648 1012840.7036517994 107.2 26 00 12 4652
628142.393951497 1012840.3106735612 109.2 26 00 16 4652
628128.1648471405 1012836.4937369262 82.8 26 00 20 4652
628144.522579576 1012837.9069018496 114.2 26 00 24 4652
628148.6698838504 1012839.8997486499 108.4 26 00 28 4652
628146.6990396988 1012841.08763793 108.9 26 00 32 4652
628148.3665945132 1012841.9334604356 113.3 26 00 36 4652
628149.4638285087 1012839.0508465373 109.2 26 00 40 4652
628150.6792140182 1012837.0090330684 109.9 26 00 44 4652
628149.0784871575 1012835.886973995 113.0 26 00 48 4652
628146.5996188398 1012837.8583434398 113.5 26 00 52 4652
628148.9104819994 1012833.4757583675 110.6 26 00 56 4652
628151.5981920721 1012834.8777938532 100.8 26 01 00 4652
628158.8375785078 1012805.0553823895 45.3 26 01 08 4652
628151.1359244579 1012824.9350417964 77.8 26 01 12 4652
628145.3491758028 1012826.9841545142 88.5 26 01 16 4652
628140.6289964976 1012832.2214645124 111.2 26 01 20 4652
628141.8737775779 1012844.8428184064 99.5 26 01 24 4652
628128.0384660467 1012834.8014344672 97.8 26 01 28 4652
628092.7893118125 1012864.433563501 92.5 26 01 32 4652
628084.0615937428 1012922.9027528331 104.4 26 01 36 4652
628064.3414954058 1012914.655855154 69.6 26 01 40 4652
628036.5417077763 1012914.1013678651 90.9 26 01 44 4652
627960.2472150996 1012907.1531237453 83.9 26 01 48 4652
627913.6331383405 1012903.673778193 92.3 26 01 52 4652
627875.3889754133 1012948.8440922012 80.6 26 01 56 4652
627866.8530140194 1012944.7360368419 84.3 26 02 00 4652
627846.427109715 1012933.8661961951 80.7 26 02 08 4652
627804.7694132974 1012930.259249846 90.7 26 02 12 4652
627771.3203773829 1012913.0331694576 105.7 26 02 16 4652
627770.6760360467 1012901.5970001731 112.6 26 02 20 4652
627768.1635348727 1012886.7820695117 115.1 26 02 24 4652
627768.498124586 1012892.0578697164 121.7 26 02 28 4652
627756.0099970055 1012876.5693312518 91.3 26 02 32 4652
627761.4913864357 1012894.1915568617 138.1 26 02 36 4652
627776.1659532756 1012885.9785747585 129.8 26 02 40 4652
627765.490490349 1012863.8389092527 129.1 26 02 44 4652
627730.3288259696 1012863.0949797689 109.8 26 02 48 4652
627743.5952458008 1012868.9765255755 108.6 26 02 52 4652
627744.8189883471 1012867.741971437 103.9 26 02 56 4652
627750.6909849818 1012863.105481244 118.0 26 03 00 4652
627706.42752131 1012829.3015935031 122.0 26 03 12 4652
627687.1748826271 1012795.3684266997 115.6 26 03 16 4652
627686.1700327366 1012769.6550821655 117.9 26 03 20 4652
627696.9958067798 1012748.6796403051 92.3 26 03 24 4652
627708.9626177027 1012752.0799551816 118.9 26 03 28 4652
627719.6250109032 1012757.875669877 123.8 26 03 32 4652
627749.6729887511 1012783.6607312546 119.9 26 03 36 4652
627763.8127335416 1012764.1335655652 117.2 26 03 40 4652
627771.9834560556 1012786.0660854399 108.6 26 03 44 4652
627785.23433782 1012786.5622922656 114.6 26 03 48 4652
627809.6425341344 1012840.3062033103 138.6 26 03 56 4652
627774.487170199 1012837.604971934 87.1 26 04 00 4652
627778.9453900529 1012876.0020838344 122.8 26 04 08 4652
627783.3703467195 1012883.889761248 121.6 26 04 12 4652
627783.4533750287 1012888.7998310435 126.6 26 04 16 4652
627786.0130825348 1012895.8078893187 132.8 26 04 20 4652
627779.1270240608 1012894.6024138706 125.5 26 04 24 4652
627784.560854074 1012886.1384058814 134.9 26 04 28 4652
627769.1365588603 1012881.5215534697 138.5 26 04 32 4652
627779.6524652408 1012885.027787885 132.6 26 04 36 4652
627779.9030758296 1012889.0869247083 129.1 26 04 40 4652
627790.7918787288 1012892.8155299831 131.7 26 04 44 4652
627797.2799576959 1012887.9598756533 145.2 26 04 48 4652
627787.3901560614 1012884.5330668096 126.5 26 04 52 4652
627787.351976353 1012879.346689135 145.4 26 04 56 4652
627775.4345437494 1012870.8818892961 78.4 26 05 00 4652
627769.9918340864 1012878.6934412565 120.2 26 05 08 4652
627768.984417471 1012870.794694343 133.9 26 05 12 4652
627778.6082443418 1012874.9172992585 170.1 26 05 16 4652
627787.1038169662 1012871.1297102388 116.8 26 05 20 4652
627792.2764095324 1012882.2930064104 152.0 26 05 24 4652
627800.9120394964 1012886.1691446715 91.6 26 18 44 4652
627840.6468347958 1012865.9617447251 102.2 26 18 48 4652
627861.8702197977 1012874.898986552 102.0 26 18 52 4652
627913.6492783526 1012874.9116706683 136.6 26 18 56 4652
627939.1114672733 1012871.14583736 106.3 26 19 00 4652
628011.7686667334 1012884.9051131904 92.4 26 19 08 4652
628064.6119359831 1012848.1310729458 102.0 26 19 12 4652
628118.9878413698 1012853.8694828949 126.9 26 19 16 4652
628160.5267813097 1012853.4622690869 131.9 26 19 20 4652
628142.1715112098 1012844.5230978212 98.8 26 19 24 4652
628149.6205108971 1012828.0042883469 66.1 26 19 28 4652
628143.9854034239 1012834.123282339 130.9 26 19 32 4652
628148.0063935106 1012827.6230802838 106.5 26 19 36 4652
628141.9033462906 1012835.7199619946 126.5 26 19 40 4652
628148.1001363734 1012835.994384085 105.8 26 19 44 4652
628148.4626760641 1012839.4125195564 103.3 26 19 48 4652
628148.4131449144 1012837.7425822609 108.5 26 19 52 4652
628152.5046095817 1012840.0117015989 108.2 26 19 56 4652
628150.8563025589 1012833.2277285925 106.1 26 20 00 4652
628153.0098122287 1012829.9283298149 103.0 26 20 08 4652
628150.7733601589 1012835.085224615 102.2 26 20 12 4652
628156.7134835948 1012833.1803655829 104.8 26 20 16 4652
628174.8025808305 1012802.1988490311 130.8 26 20 20 4652
628150.8252513355 1012829.2467032287 115.0 26 20 24 4652
628151.6754559904 1012838.162307204 109.2 26 20 28 4652
628144.6224307047 1012841.003500219 103.2 26 20 32 4652
628142.6286203826 1012839.1060986543 84.6 26 20 36 4652
628165.5954994694 1012852.571934348 122.0 26 20 40 4652
628186.1062439531 1012864.3821609803 130.8 26 20 44 4652
628147.2444950251 1012842.3168576934 101.2 26 20 48 4652
628149.2225339874 1012849.0797830871 115.5 26 20 52 4652
628141.8805087596 1012835.9852829486 108.5 26 20 56 4652
628115.6832991567 1012822.3984143347 103.4 26 21 00 4652
628066.4887597195 1012743.660025478 112.7 26 21 12 4652
628041.369651963 1012726.2837747289 113.0 26 21 16 4652
628017.1702429027 1012713.3337680026 121.5 26 21 20 4652
628013.4561461469 1012686.1408880624 120.5 26 21 24 4652
627988.0471949647 1012683.6037347001 124.4 26 21 28 4652
627950.970628825 1012683.6827899017 128.3 26 21 32 4652
627949.1298166832 1012678.6453905536 123.1 26 21 36 4652
627940.0210841892 1012640.9740921158 130.3 26 21 40 4652
627951.8739446282 1012611.6752613307 133.4 26 21 44 4652
627936.1174786282 1012601.0084919063 131.1 26 21 48 4652
627969.5736488947 1012616.1004908261 130.4 26 21 52 4652
628005.5167951336 1012596.1573966044 123.2 26 22 00 4652
628065.94450545 1012535.0800017699 131.7 26 22 08 4652
628086.2156270507 1012529.3290788057 165.9 26 22 12 4652
628083.6908555806 1012511.5394447502 142.3 26 22 16 4652
628069.5255082507 1012515.1427504404 123.0 26 22 20 4652
628080.0199950458 1012491.3575458422 150.4 26 22 24 4652
628138.5301721799 1012476.1431088331 151.6 26 22 28 4652
628173.901494674 1012442.8290184713 153.2 26 22 32 4652
628173.5665400607 1012441.0696914593 138.3 26 22 36 4652
628180.2712101527 1012430.453505282 161.8 26 22 40 4652
628177.6151964469 1012426.0437648327 155.7 26 22 44 4652
628189.6115540162 1012427.1331652438 146.7 26 22 48 4652
628179.4555928551 1012424.4241850165 159.7 26 22 52 4652
628180.8692899569 1012422.2282000252 161.4 26 22 56 4652
628179.2725918719 1012430.0300602948 151.4 26 23 00 4652
628181.8144033492 1012439.1612493749 148.1 26 23 08 4652
628185.726296417 1012432.4284723374 135.4 26 23 12 4652
628190.5620968489 1012445.7802420759 148.5 26 23 16 4652
628214.7480590765 1012408.6812252691 141.2 26 23 20 4652
628228.1267695848 1012407.0769354651 156.8 26 23 24 4652
628258.173860245 1012409.419157209 135.9 26 23 28 4652
628257.5386090442 1012405.3808814142 125.1 26 23 32 4652
628256.794887392 1012397.5161424674 132.1 26 23 36 4652
628265.5092599427 1012397.4669940475 134.4 26 23 40 4652
628264.1311570645 1012402.2396354598 132.4 26 23 44 4652
628263.221668286 1012401.44050109 140.6 26 23 48 4652
628266.5074638214 1012401.4069239234 138.3 26 23 52 4652
628273.8222053736 1012402.6028068811 135.0 26 23 56 4652
628294.154749796 1012418.6035131589 130.8 27 00 00 4652
628383.6594855305 1012479.5367233596 139.5 27 00 08 4652
628387.993169552 1012515.5228909155 121.1 27 00 12 4652
628433.3199687874 1012516.2561437893 132.6 27 00 16 4652
628412.4846468837 1012533.2954170291 128.7 27 00 20 4652
628415.1992441342 1012563.647746031 139.1 27 00 24 4652
628426.1664247757 1012560.1779318952 134.9 27 00 28 4652
628412.6441378079 1012555.2463269612 145.5 27 00 32 4652
628419.9616502234 1012555.579715931 136.0 27 00 36 4652
628433.3895991567 1012552.3390569566 138.5 27 00 40 4652
628420.9085167814 1012561.7864029517 144.1 27 00 44 4652
628427.4912532564 1012561.664023998 144.9 27 00 48 4652
628437.6326530639 1012592.5270344102 124.4 27 00 52 4652
628463.9876859373 1012618.4444416178 126.8 27 00 56 4652
628484.0395731847 1012615.9219834596 127.3 27 01 00 4652
628450.3779175095 1012599.8557411171 114.6 27 01 08 4652
628435.4142531934 1012592.110678542 107.8 27 01 12 4652
628430.2153130746 1012602.6321945691 125.1 27 01 16 4652
628456.4359595599 1012592.1126092289 119.2 27 01 20 4652
628454.4341790156 1012585.9024938202 121.4 27 01 24 4652
628435.0175463782 1012585.6846148082 114.2 27 01 28 4652
628412.8464351984 1012584.31881332 146.6 27 01 32 4652
628390.8644335977 1012585.6297062328 140.1 27 01 36 4652
628388.6937513889 1012577.2848278311 144.9 27 01 40 4652
628387.8902893286 1012587.8316766612 141.3 27 01 44 4652
628390.5754589234 1012586.635058002 138.8 27 01 48 4652
628423.7649131208 1012562.0057831933 132.2 27 01 52 4652
628433.8162210289 1012559.7051589349 149.3 27 01 56 4652
628420.7929167642 1012550.0091165769 127.8 27 02 00 4652
628403.2125077368 1012552.8382044553 118.4 27 02 08 4652
628362.1084731979 1012541.0273821291 100.3 27 02 12 4652
628331.056376964 1012557.1931145444 121.8 27 02 16 4652
628293.7928551617 1012530.1677861064 122.8 27 02 20 4652
628273.5994722644 1012535.6534636752 134.6 27 02 24 4652
628255.6891883948 1012528.3854772624 131.3 27 02 28 4652
628258.1547964463 1012527.1217888485 122.9 27 02 32 4652
628236.4654244846 1012529.6832881385 127.7 27 02 36 4652
628233.2938265142 1012541.9475235271 120.0 27 02 40 4652
628230.5197068623 1012557.0218116893 127.6 27 02 44 4652
628183.7476191799 1012588.5959390443 132.6 27 02 48 4652
628144.6877561496 1012563.1462487634 137.7 27 02 52 4652
628119.0013338764 1012568.2161090891 130.2 27 02 56 4652
628103.0327196117 1012578.9460467394 148.7 27 03 00 4652
628076.1076141103 1012593.2565088811 125.5 27 03 08 4652
628063.17947609 1012622.0210426932 132.0 27 03 12 4652
628056.7860642561 1012628.1597110047 136.7 27 03 16 4652
628052.3239628008 1012624.9605230946 133.4 27 03 20 4652
628051.5025692373 1012620.7115453889 137.1 27 03 24 4652
628047.6481053451 1012616.5080369569 131.5 27 03 28 4652
628047.3213000922 1012622.4120144481 127.7 27 03 32 4652
628009.9436749549 1012637.3963900084 114.8 27 03 36 4652
627968.9249285884 1012626.4045560871 127.1 27 03 40 4652
627938.7572193207 1012607.0547630097 134.4 27 03 44 4652
627942.9528713844 1012604.3038084491 125.8 27 03 48 4652
627910.6150194241 1012630.7607874484 135.9 27 03 52 4652
627878.9385935421 1012663.3792958795 139.4 27 03 56 4652
