626517.9893942644 1013355.792392823 127.1 10 13 20 4673
626520.2242264873 1013333.904572025 62.2 10 13 24 4673
626516.2744574765 1013349.1520608095 70.8 10 13 29 4673
626544.8033757516 1013368.9488923781 90.4 10 14 00 4673
626489.1667858071 1013345.3497688165 91.7 10 14 56 4673
626483.7121205989 1013326.1023294874 101.8 10 15 00 4673
626466.319668111 1013315.0217710111 78.6 10 15 08 4673
626432.8945848874 1013276.5433270058 98.9 10 15 12 4673
626452.490998152 1013268.5115234068 154.8 10 15 16 4673
626380.1899301874 1013188.2309194336 22.3 10 15 21 4673
626417.3943876692 1013244.1489002056 150.6 10 15 25 4673
626369.6385907924 1013185.4990131631 40.0 10 15 29 4673
626395.7407007527 1013187.6503401475 40.5 10 15 32 4673
626462.9097975607 1013192.4653680582 119.6 10 15 36 4673
626451.9610615182 1013159.3888357898 95.1 10 15 40 4673
626444.360261576 1013165.2142345032 93.0 10 15 44 4673
626448.008070483 1013172.2146023031 91.0 10 15 48 4673
626452.5317012228 1013156.1948806429 34.1 10 15 52 4673
626457.5319779299 1013156.0560662476 56.9 10 15 56 4673
626401.5078681195 1013116.0788814897 44.2 10 16 00 4673
626457.5122931034 1013220.5908747553 93.3 10 16 24 4673
626480.5411372047 1013207.8925020798 97.4 10 16 28 4673
626457.3729650949 1013222.923680838 73.4 10 16 32 4673
626479.7432041679 1013203.1349797953 110.4 10 16 36 4673
626479.4708813186 1013233.2894560593 97.3 10 16 40 4673
626509.1921016589 1013223.9299388807 97.8 10 16 44 4673
626580.9407069703 1013191.8479984122 100.7 10 16 48 4673
626601.44442652 1013168.1719956369 104.6 10 16 52 4673
626636.0304058719 1013166.701494693 123.1 10 16 56 4673
626636.2563559683 1013175.062121073 120.2 10 17 00 4673
626625.9697510246 1013137.719229068 127.2 10 17 08 4673
626633.4934025533 1013121.687013987 124.9 10 17 12 4673
626620.6693887461 1013090.8934332425 108.6 10 17 16 4673
626625.9415942826 1013074.4780294882 124.2 10 17 20 4673
626635.0086495964 1013077.4706407662 128.8 10 17 24 4673
626625.7876413817 1013071.0827084781 107.5 10 17 28 4673
626626.7690795377 1013080.2972258169 113.0 10 17 32 4673
626628.926124976 1013075.8477335601 114.9 10 17 36 4673
626624.7506714097 1013068.91200457 99.7 10 17 40 4673
626629.6679976111 1013077.519879031 118.1 10 17 44 4673
626626.7076405644 1013075.4646519187 122.0 10 17 48 4673
626626.0700003444 1013065.2670676793 128.8 10 17 52 4673
626628.5556444493 1013081.729440528 80.5 10 17 56 4673
626618.7674051876 1013087.7579062106 126.5 10 18 00 4673
626669.2183790151 1013083.7064298517 106.5 10 18 08 4673
626655.6310768031 1013095.6498390551 127.4 10 18 12 4673
626661.159775956 1013098.6421771271 116.3 10 18 16 4673
626657.6015006208 1013094.5724620589 133.9 10 18 20 4673
626659.897534312 1013087.9007439555 114.3 10 18 24 4673
626663.5844480891 1013092.9771560014 139.1 10 18 28 4673
626662.5960838926 1013096.2140039362 115.2 11 06 21 4673
626658.4163824369 1013087.1772229491 160.2 11 06 24 4673
626685.551216391 1013113.4165278793 82.4 11 06 28 4673
626686.1565081868 1013113.130958069 105.5 11 06 32 4673
626729.3486953011 1013131.5926530611 164.6 11 06 36 4673
626768.322563426 1013183.889642914 95.3 11 06 41 4673
626777.5381998477 1013209.0652709177 141.3 11 06 44 4673
626766.4545499026 1013201.0015539803 285.2 11 06 48 4673
626767.7942071321 1013211.5773724779 241.9 11 06 52 4673
626805.1583947996 1013220.9749677769 104.3 11 06 56 4673
626780.9393954588 1013224.4137349139 169.6 11 07 00 4673
626790.5619962265 1013280.2878987393 56.1 11 07 08 4673
626709.5520749892 1013274.0014174408 118.2 11 07 12 4673
626675.8263653236 1013305.3645742984 83.3 11 07 16 4673
626686.6916712364 1013340.3982116742 6.3 11 07 20 4673
626677.8175088007 1013349.2383379686 138.7 11 07 24 4673
626648.1404539066 1013358.5425732955 107.7 11 07 28 4673
626589.8532413186 1013363.1328889477 97.2 11 07 32 4673
626553.9951944763 1013367.2753872769 70.3 11 07 36 4673
626547.6309754627 1013374.7081441864 89.7 11 07 40 4673
626543.1143979874 1013364.4981394524 71.6 11 07 45 4673
626534.3962396939 1013372.6753087036 105.0 11 07 48 4673
626542.874400661 1013357.0884641724 51.4 11 07 52 4673
626529.694494995 1013355.0889808561 32.2 11 07 56 4673
626540.5964652523 1013371.8436923751 81.0 11 08 00 4673
626545.5329784458 1013347.0009603889 44.2 11 08 08 4673
626546.3639722053 1013375.74354511 92.0 11 08 12 4673
626544.055922122 1013372.4519068081 26.9 11 08 17 4673
626550.1474120024 1013364.3990240067 67.7 11 08 20 4673
626545.6156182211 1013386.3900698179 84.1 11 08 24 4673
626535.7191259942 1013388.5036424663 69.4 11 08 28 4673
626540.359358029 1013404.7075164459 103.4 11 08 32 4673
626543.4390775757 1013407.2275612064 106.0 11 08 36 4673
626535.4545722927 1013405.9192549877 81.7 11 09 01 4673
626521.5105552432 1013433.2212089682 83.4 11 09 32 4673
626501.102620665 1013488.8111262443 73.4 11 09 40 4673
626523.2176349234 1013510.9427886752 73.9 11 09 45 4673
626509.9013269044 1013482.9232315347 102.2 11 09 49 4673
626533.2504603476 1013473.1120869359 102.3 11 09 52 4673
626522.4235745894 1013460.3716931057 69.7 11 09 56 4673
626549.5837432062 1013454.6200137673 90.5 11 10 00 4673
626548.4297388338 1013389.4953419211 86.6 11 10 52 4673
626540.3151352871 1013397.9287780059 82.2 11 10 56 4673
626537.3414912599 1013379.4412207141 71.1 11 11 01 4673
626545.3809294387 1013387.6167639781 90.4 11 11 04 4673
626543.6694591846 1013376.4647485162 87.7 11 11 08 4673
626543.3969596659 1013392.9293418733 90.4 11 11 12 4673
626541.6896288014 1013390.7786085932 100.5 11 11 17 4673
626537.2499444066 1013394.3029731736 86.0 11 11 20 4673
626532.8307054818 1013384.579836337 85.8 11 11 24 4673
626541.5005833103 1013388.046659934 79.9 11 11 28 4673
626532.5815938534 1013386.8791170787 75.2 11 11 32 4673
626535.1912453284 1013374.9115845443 79.7 11 11 36 4673
626518.6500414725 1013372.5364243335 96.6 11 12 01 4673
626501.7398218017 1013341.2653576636 108.4 11 12 40 4673
626502.5126825675 1013336.6897916164 100.5 11 12 44 4673
626505.5059536016 1013338.7561748084 97.8 11 13 00 4673
626507.8704028102 1013341.5946099032 98.0 11 14 08 4673
626508.3252280708 1013343.6860409351 99.6 11 14 12 4673
626515.6130022975 1013353.2524865206 111.3 11 14 17 4673
626503.8594514045 1013338.1980003363 106.9 11 14 20 4673
626506.9621609099 1013343.836490086 116.6 11 14 24 4673
626538.827682462 1013330.5471965238 76.2 11 14 28 4673
626540.9272580743 1013350.9007677918 58.6 11 14 32 4673
626539.1150665325 1013357.4745159829 71.1 11 14 36 4673
626528.5597549453 1013359.4311685618 70.1 11 14 40 4673
626530.3276839566 1013366.6798649593 65.0 11 14 44 4673
626540.7492843699 1013385.8879303287 74.8 11 14 48 4673
626538.777533047 1013445.7168320755 63.3 11 14 52 4673
626539.1843583562 1013459.3637934667 39.3 11 14 56 4673
626545.1628986874 1013462.5566071658 62.7 11 15 00 4673
626509.8890687748 1013445.5690347882 72.6 11 15 08 4673
626504.3871283969 1013458.2571399307 50.4 11 15 12 4673
626483.7597347286 1013445.1094070453 37.8 11 15 17 4673
626502.9071929234 1013457.1576527655 62.8 11 15 20 4673
626484.0212534341 1013435.5007830627 76.2 11 15 24 4673
626468.1134438231 1013427.4991123563 57.6 11 15 28 4673
626451.9725533935 1013430.5215956174 86.9 11 15 32 4673
626454.3694158983 1013402.6297636956 90.2 11 15 36 4673
626441.4124504332 1013375.6066179215 108.7 11 15 41 4673
626410.7583907966 1013360.5912105049 82.0 11 15 44 4673
626417.59326366 1013367.4690767645 100.3 11 15 48 4673
626425.486581287 1013352.632290231 104.5 11 15 52 4673
626419.8040539887 1013353.0785486437 88.8 11 15 56 4673
626427.2418715351 1013353.533609475 108.9 11 16 00 4673
626417.8939206668 1013355.9254184925 95.4 11 16 08 4673
626425.7485711118 1013353.1749736547 91.5 11 16 16 4673
626421.0086256019 1013350.9481957996 109.2 11 16 20 4673
626426.5378386895 1013343.468517341 91.4 11 16 28 4673
626438.5813928836 1013326.2785848026 89.1 11 16 32 4673
626420.2538915119 1013322.3827987203 117.2 11 16 37 4673
626431.5040609136 1013319.621101072 90.2 11 16 40 4673
626429.530683276 1013321.6273552984 100.1 11 16 44 4673
626448.3653372447 1013328.4330399879 96.8 11 17 00 4673
626444.7411074659 1013338.1083088185 102.8 11 17 52 4673
626432.3216603829 1013352.576752587 143.7 11 17 56 4673
626457.0269539984 1013341.3544629073 99.6 11 18 04 4673
626438.7250909507 1013350.053886245 146.1 11 18 08 4673
626443.9624703038 1013317.0180854155 95.0 11 18 12 4673
626468.2037566577 1013272.2441407507 96.4 11 18 16 4673
626481.3889784124 1013289.7580847223 109.2 11 18 20 4673
626528.7241193712 1013280.6429533774 105.8 11 18 24 4673
626542.7491007783 1013231.5015694884 126.4 11 18 28 4673
626530.25828023 1013151.5449163123 60.1 12 06 04 4673
626526.328853414 1013160.4340814986 72.5 12 06 08 4673
626525.8590877206 1013197.3333508188 96.8 12 06 12 4673
626549.7132451853 1013204.8739225509 103.1 12 06 16 4673
626563.3060342381 1013201.4894485088 95.4 12 06 20 4673
626563.1740624736 1013211.817262856 145.4 12 06 28 4673
626581.4188646218 1013210.6703653246 103.1 12 06 32 4673
626575.3860707053 1013214.1122192731 120.6 12 06 36 4673
626569.3964174573 1013217.8085477841 110.2 12 06 40 4673
626583.8957353297 1013219.5800452018 63.1 12 06 44 4673
626575.0893194516 1013217.5613867049 184.0 12 06 48 4673
626575.1576353329 1013233.9717815322 136.6 12 06 52 4673
626565.5082640968 1013244.689321428 115.7 12 06 56 4673
626564.4433343048 1013268.4054708104 173.2 12 07 00 4673
626589.9337699843 1013259.0988139763 108.5 12 07 08 4673
626598.4391715891 1013265.8935995278 106.1 12 07 12 4673
626632.8492167582 1013298.7246837824 68.1 12 07 16 4673
626675.9239091338 1013350.3491330548 77.8 12 07 20 4673
626683.7747260333 1013335.092042386 116.6 12 07 24 4673
626680.39622427 1013343.5074641815 76.0 12 07 28 4673
626685.445190336 1013331.6030461625 75.9 12 07 32 4673
626678.8755246496 1013341.4126130359 43.0 12 07 36 4673
626665.9519654347 1013338.2859823559 84.9 12 07 40 4673
626690.0307213524 1013334.0062914279 77.5 12 07 44 4673
626675.1998035429 1013349.9929533883 96.4 12 07 48 4673
626654.845798666 1013347.539165489 90.3 12 07 52 4673
626620.7093484857 1013363.0879967696 117.9 12 07 56 4673
626619.4787806119 1013363.0398212875 116.6 12 08 00 4673
626557.845997615 1013386.3628917935 101.9 12 08 44 4673
626559.2250187772 1013374.369302252 82.2 12 08 49 4673
626562.0350131695 1013385.6243600819 115.2 12 08 52 4673
626540.7656834234 1013370.4730336347 61.2 12 08 56 4673
626561.426295743 1013335.5182935352 30.7 12 09 01 4673
626575.0375214622 1013336.6566388456 60.0 12 09 04 4673
626557.9536640535 1013352.7467029311 49.2 12 09 08 4673
626558.4028718204 1013349.7292884721 45.4 12 09 12 4673
626542.876439499 1013397.6273546088 74.8 12 09 16 4673
626517.3041462044 1013415.3710742965 90.0 12 09 20 4673
626529.2697782859 1013408.7966637162 85.0 12 09 24 4673
626548.0109474484 1013393.3090348587 56.6 12 09 28 4673
626541.0883260728 1013372.6635646643 72.2 12 09 40 4673
626549.7885663308 1013370.0817227454 69.7 12 09 44 4673
626583.1600613273 1013366.9154237054 93.5 12 09 48 4673
626589.771072389 1013361.3412181466 96.5 12 09 52 4673
626608.6471216658 1013341.4971642805 89.5 12 09 56 4673
626670.6984601985 1013338.4670683963 76.3 12 10 00 4673
626689.1926198476 1013331.5044795524 66.5 12 10 08 4673
626746.0759191711 1013315.8406652308 103.1 12 10 12 4673
626778.1444594819 1013304.3878436905 114.1 12 10 16 4673
626826.3232991248 1013275.5149809315 90.2 12 10 20 4673
626819.1943477558 1013264.4119074213 105.7 12 10 29 4673
626830.8073159594 1013258.1903032218 68.5 12 10 37 4673
626833.3251940026 1013271.4238471652 123.6 12 10 41 4673
626848.8255679313 1013276.2728049159 98.0 12 10 44 4673
626825.6397559447 1013300.183362285 87.5 12 10 48 4673
626839.8675531604 1013311.2207585343 124.6 12 10 53 4673
626851.0975880323 1013311.3231543421 101.1 12 10 56 4673
626856.9900991367 1013300.2397571148 85.6 12 11 00 4673
626876.6577474942 1013215.2883715263 86.7 12 11 09 4673
626877.5306852763 1013165.8615534625 117.7 12 11 12 4673
626858.9678709739 1013108.5874622822 114.6 12 11 16 4673
626822.9649364261 1013082.4522660115 131.7 12 11 20 4673
626790.0830838976 1013080.1904500853 130.7 12 11 24 4673
626781.3054449132 1013048.6357183567 131.2 12 11 28 4673
626762.7474780083 1013000.0644214408 133.7 12 11 32 4673
626752.952394394 1013001.3599807171 150.2 12 11 36 4673
626758.0952250714 1013004.7491848536 122.9 12 11 40 4673
626764.1095832143 1012986.5115888992 146.6 12 11 44 4673
626773.1487890529 1012991.3397817516 134.5 12 11 53 4673
626775.3965638139 1012938.0470654068 142.8 12 11 57 4673
626792.9562209717 1012931.2916069309 151.9 12 12 00 4673
626779.684656317 1012923.563679986 135.6 12 12 08 4673
626780.9676428175 1012914.1241978916 129.7 12 12 12 4673
626773.1826595243 1012925.953489127 141.9 12 12 16 4673
626746.3544213243 1012896.5967415505 151.5 12 12 20 4673
626698.2593067 1012875.2331917739 163.1 12 12 25 4673
626658.169704291 1012869.2218401121 144.9 12 12 28 4673
626662.7960893367 1012869.1813717741 142.8 12 12 32 4673
626667.5144278391 1012871.3085805834 152.1 12 12 36 4673
626666.188418956 1012870.1764088157 148.8 12 12 40 4673
626659.9475575145 1012869.9463105586 160.2 12 12 44 4673
626675.7735050737 1012869.2671840078 113.3 12 13 00 4673
626637.71386916 1012919.0613821485 157.7 12 13 25 4673
626629.3897152258 1012917.4091812159 119.9 12 13 28 4673
626632.8279161182 1012921.2352288036 119.9 12 13 32 4673
626633.7143287201 1012915.5210458081 125.4 12 13 36 4673
626625.8462846995 1012918.9901932698 145.5 12 13 40 4673
626615.1444746356 1012915.1851141113 132.2 12 13 44 4673
626615.4544575932 1012914.467332391 112.3 12 13 52 4673
626611.1795478181 1012893.974096061 117.9 12 13 57 4673
626615.2644802142 1012908.5948888889 113.7 12 14 00 4673
626630.0870078485 1012922.7082304579 144.7 12 14 44 4673
626621.7765172431 1012927.0827230162 128.2 12 14 48 4673
626612.9204560998 1012916.5270755853 130.5 12 14 52 4673
626609.8921249456 1012911.6739422356 114.2 12 14 56 4673
626611.8756790953 1012913.3611215173 123.9 12 15 00 4673
626620.5986205236 1012917.447371244 109.7 12 18 20 4673
626609.2682181417 1012910.9089372818 107.8 12 18 24 4673
626616.2862008117 1012918.9595726617 113.5 12 18 28 4673
626619.4504377459 1013073.4951828708 116.4 13 06 01 4673
626622.145355263 1013069.2243424779 118.3 13 06 04 4673
626623.8728548083 1013065.0830999145 133.2 13 06 08 4673
626627.0857704416 1013084.3454944141 128.7 13 06 12 4673
626626.5403514801 1013124.2523262011 106.9 13 06 16 4673
626631.5448629985 1013129.6536406301 89.6 13 06 20 4673
626634.6957567094 1013140.8323883491 102.0 13 06 28 4673
626648.9768835702 1013135.2606472893 88.6 13 06 33 4673
626635.1508020326 1013149.7134779658 120.0 13 06 36 4673
626629.4286599497 1013159.0834470895 122.5 13 06 40 4673
626626.9145398999 1013172.0907423334 112.0 13 06 44 4673
626628.5008511184 1013167.4293185401 116.0 13 06 48 4673
626628.9863875797 1013180.5125730246 134.7 13 06 52 4673
626567.3044187074 1013195.0885727777 134.8 13 06 56 4673
626553.6834435344 1013262.1784930984 92.6 13 07 00 4673
626544.2910961572 1013367.6423995782 105.8 13 07 08 4673
626531.788725462 1013377.1123028256 128.0 13 07 12 4673
626531.6738364763 1013375.2431212021 117.7 13 07 16 4673
626529.2637727696 1013383.2193299006 154.1 13 07 20 4673
626540.4732055797 1013379.4512496109 62.6 13 07 24 4673
626544.3077070346 1013386.4743457366 88.3 13 07 28 4673
626556.6421420278 1013367.6819552969 39.7 13 07 32 4673
626545.9868771313 1013359.6749619395 78.9 13 07 36 4673
626548.5661440769 1013367.4902194501 75.1 13 07 40 4673
626552.373433261 1013365.8547603104 89.0 13 07 44 4673
626542.5657958486 1013377.9651115668 96.1 13 07 48 4673
626586.8314799273 1013417.98230096 82.1 13 07 52 4673
626578.6330599067 1013418.2767205772 104.8 13 07 56 4673
626584.7942086636 1013412.490970733 72.6 13 08 00 4673
626585.2508215855 1013465.4716548681 85.3 13 08 20 4673
626623.349725476 1013464.9855410736 95.9 13 08 24 4673
626620.0269847107 1013452.5787927287 88.7 13 08 28 4673
626597.0462804761 1013415.9803422263 3.8 13 08 32 4673
626619.545450754 1013462.2530634394 46.5 13 09 00 4673
626664.562559386 1013418.6405534575 61.6 13 09 25 4673
626659.3296044029 1013415.9587827944 75.3 13 09 28 4673
626675.7469481189 1013391.8384612596 66.0 13 09 32 4673
626685.6311942993 1013376.4109613543 91.1 13 09 36 4673
626684.7845256379 1013352.5891538169 74.8 13 09 40 4673
626684.058436278 1013349.4242166451 32.0 13 09 44 4673
626664.3526464391 1013360.71768793 59.8 13 09 49 4673
626754.9161286852 1013262.779193388 123.4 13 09 56 4673
626751.7147849001 1013243.3620010373 54.3 13 10 00 4673
626746.1575989246 1013249.2602486137 86.7 13 10 08 4673
626744.0715049197 1013235.0107560252 47.0 13 10 13 4673
626737.7563904265 1013244.2461129517 157.0 13 10 16 4673
626709.3788437177 1013228.6406382925 111.5 13 10 20 4673
626693.3800539365 1013238.7185424061 158.6 13 10 24 4673
626697.8844946005 1013238.9983768859 117.0 13 10 29 4673
626714.9344002882 1013216.3950456457 19.4 13 10 32 4673
626705.9982028845 1013237.7195369253 103.3 13 10 36 4673
626715.4160975271 1013247.801523456 122.2 13 10 40 4673
626710.6752029972 1013232.161262525 106.9 13 10 44 4673
626708.646792135 1013234.1894447877 95.3 13 10 48 4673
626715.8581642653 1013236.733807636 79.3 13 10 52 4673
626708.8087835767 1013235.074610156 98.7 13 10 56 4673
626704.4201817688 1013236.3653924833 98.8 13 11 00 4673
626706.8494197334 1013242.9859096878 93.5 13 11 08 4673
626717.3405503803 1013237.0703030197 105.9 13 11 12 4673
626715.0191694547 1013241.3644509913 102.1 13 11 16 4673
626718.999239541 1013247.5365607524 96.8 13 11 20 4673
626721.2047681379 1013255.3838083219 115.1 13 11 24 4673
626719.3474968559 1013255.4442013301 126.8 13 11 28 4673
626714.3582218769 1013248.7270098033 109.0 13 11 32 4673
626720.6611611078 1013250.1405374554 101.5 13 11 36 4673
626717.4272114418 1013244.3136201745 114.4 13 11 40 4673
626721.9206024827 1013299.4414769278 109.7 13 11 44 4673
626703.4282506973 1013364.094037498 132.7 13 11 48 4673
626706.7127599611 1013347.2962945758 124.2 13 11 52 4673
626695.7959363825 1013362.6098994543 123.7 13 11 56 4673
626700.57877101 1013351.4565788093 133.0 13 12 01 4673
626705.517393804 1013343.123567214 100.6 13 12 13 4673
626672.0575929858 1013353.2560704446 83.1 13 12 17 4673
626680.6414805173 1013342.4135010561 81.0 13 12 20 4673
626685.9169112591 1013342.1318455428 52.9 13 12 24 4673
626685.088981472 1013343.3124052258 66.1 13 12 28 4673
626682.5080331081 1013346.3119272095 84.5 13 12 44 4673
626686.8298641592 1013276.726261548 81.8 13 12 48 4673
626652.4260369033 1013293.3910824895 120.0 13 12 56 4673
626657.293481317 1013293.5504377167 97.6 13 13 00 4673
626639.2316946196 1013347.3232511977 95.5 13 13 08 4673
626622.0403084696 1013338.6649796134 110.3 13 13 12 4673
626635.3967050749 1013337.0269532114 117.0 13 13 16 4673
626641.9208939266 1013344.8327451071 136.9 13 13 20 4673
626664.9705181821 1013363.3625482103 44.9 13 14 00 4673
626603.3319283942 1013367.9089263758 82.4 13 17 13 4673
626605.976343913 1013406.8307547972 78.9 13 17 16 4673
626566.871300257 1013405.7987138649 56.1 13 17 20 4673
626560.3576107237 1013374.1296522577 89.4 13 17 25 4673
626502.5498970035 1013386.8493084954 -13.6 13 17 29 4673
626540.1566259277 1013389.0928726158 74.5 13 17 33 4673
626521.8535431382 1013384.4451638509 56.7 13 17 41 4673
626536.3105556862 1013389.113730245 86.3 13 17 44 4673
626541.3853368907 1013396.5831207761 69.2 13 17 48 4673
626533.2219574247 1013392.7972348754 74.3 13 17 52 4673
626540.3835131814 1013386.8709271816 65.5 13 17 56 4673
626536.289722878 1013392.187806893 91.7 13 18 00 4673
626537.4921372023 1013459.3583739443 134.1 13 18 25 4673
626495.6567070783 1013459.9763631388 50.0 13 18 29 4673
626485.2915246475 1013436.8760498647 86.3 14 06 00 4673
626506.6226850383 1013432.709100448 77.0 14 06 08 4673
626545.2820282917 1013397.9115103913 73.3 14 06 12 4673
626557.1898584379 1013378.5095603283 78.4 14 06 16 4673
626553.743824696 1013373.7103790425 6.2 14 06 21 4673
626557.3554553878 1013374.838811362 74.2 14 06 24 4673
626561.9261644275 1013375.0082637637 95.4 14 06 28 4673
626560.7632633885 1013374.4184613521 82.9 14 06 32 4673
626550.2212603162 1013368.7893143061 80.6 14 06 36 4673
626539.5525761282 1013354.6782254222 115.6 14 06 40 4673
626530.0695768575 1013330.6076167782 81.0 14 06 45 4673
626533.5725006906 1013273.0284096322 107.8 14 06 49 4673
626594.107899977 1013190.9723529861 123.0 14 06 52 4673
626648.9025667352 1013216.7473449652 116.2 14 06 56 4673
626690.5792947164 1013234.8724120002 106.5 14 07 00 4673
626711.4558695861 1013293.7019537666 165.7 14 07 08 4673
626693.6293012438 1013280.9390698986 77.1 14 07 12 4673
626686.6942915764 1013346.4359288756 115.3 14 07 56 4673
626674.1528135322 1013350.9516495113 104.0 14 08 00 4673
626673.8049770212 1013332.6273054082 67.2 14 08 08 4673
626694.9450418355 1013357.2440048268 123.7 14 08 12 4673
626703.2252939024 1013351.9958522381 112.4 14 08 16 4673
626708.265850899 1013387.2651599224 206.3 14 08 21 4673
626707.248394626 1013348.1716000593 96.9 14 08 24 4673
626705.3963656586 1013356.8794249743 102.5 14 08 28 4673
626695.9217783792 1013354.206165834 106.1 14 08 32 4673
626686.5392489673 1013343.3834031842 95.1 14 08 36 4673
626704.0239909259 1013377.0670702867 131.8 14 08 40 4673
626650.7843969098 1013380.457091181 99.7 14 08 48 4673
626562.3193142322 1013365.4774662653 82.9 14 09 00 4673
626555.4299552357 1013361.8947022468 110.5 14 09 08 4673
626547.1635809094 1013376.5422869361 80.1 14 10 00 4673
626554.2506048547 1013373.3028535255 53.1 14 10 08 4673
626547.1646125892 1013365.9265431134 58.7 14 10 13 4673
626555.9845075738 1013370.5881215149 63.1 14 10 17 4673
626543.470572623 1013366.5118487725 77.9 14 10 36 4673
626533.0588075813 1013385.4099219852 116.7 14 10 40 4673
626541.1438528905 1013389.6378795734 109.5 14 10 44 4673
626538.7342693373 1013404.3263377846 140.2 14 10 48 4673
626551.4066930983 1013389.7923859697 95.6 14 10 52 4673
626541.839982348 1013398.7298423308 96.3 14 10 57 4673
626548.363827809 1013396.3511342865 110.6 14 11 01 4673
626547.3858896703 1013396.3369442254 88.5 14 11 05 4673
626549.7519515847 1013395.2387149138 79.6 14 11 08 4673
626584.5861493556 1013419.12514709 78.7 14 11 12 4673
626576.2076280192 1013420.7570168156 64.5 14 11 16 4673
626596.9400464568 1013462.8551693854 149.0 14 11 25 4673
626551.9333941074 1013441.4905516988 92.1 14 11 29 4673
626552.2198013304 1013427.5472421834 56.5 14 11 33 4673
626566.072358078 1013463.1101364724 108.3 14 11 36 4673
626559.3750822712 1013451.0243282184 82.2 14 11 40 4673
626563.9753510323 1013438.5323854461 87.4 14 11 44 4673
626540.8687492626 1013424.0718282361 35.4 14 11 48 4673
626550.9998540618 1013448.1998104564 56.8 14 11 52 4673
626608.9564740607 1013454.146737648 178.9 14 11 57 4673
626559.0992208525 1013444.5212989863 79.2 14 12 01 4673
626559.2878934201 1013440.5078236375 83.4 14 12 57 4673
626539.9594634018 1013409.4833219752 49.7 14 13 05 4673
626538.6171747135 1013399.7147476927 58.0 14 13 08 4673
626483.4651145341 1013399.8367337276 80.3 14 13 12 4673
626465.9249922102 1013417.7388923919 86.7 14 13 16 4673
626448.1352053897 1013396.9149085489 96.8 14 13 20 4673
626418.0459662318 1013335.8776327193 96.7 14 13 24 4673
626393.2001857313 1013308.5732006737 77.8 14 13 28 4673
626382.3508334717 1013261.5970210937 148.2 14 13 32 4673
626368.1884539423 1013264.4268283277 50.4 14 13 37 4673
626369.5823127832 1013258.0839573012 93.2 14 13 40 4673
626397.491316763 1013241.5529414974 122.8 14 13 44 4673
626369.3620946635 1013223.8585484994 95.4 14 13 48 4673
626396.3891295126 1013187.6192397207 96.6 14 13 52 4673
626401.2647731082 1013130.2434832115 94.2 14 13 56 4673
626429.2124665187 1013101.6482533698 111.6 14 14 00 4673
626506.6309067827 1013028.5035783916 123.9 14 14 08 4673
626537.4100640803 1013004.5176254837 119.8 14 14 12 4673
626549.4448201574 1013003.8484357104 120.3 14 14 16 4673
626541.9465267273 1012977.6389271187 117.9 14 14 20 4673
626559.251244423 1012978.4131003683 125.7 14 14 24 4673
626566.8111711332 1012995.665775555 121.3 14 14 28 4673
626570.3729910232 1012984.9066212674 116.2 14 14 32 4673
626604.6349377404 1012974.8650312059 123.5 14 14 36 4673
626653.0055589824 1012930.7876934464 113.4 14 14 40 4673
626688.1808753163 1012920.362061106 132.6 14 14 44 4673
626660.0012667456 1012873.7615171695 139.4 14 14 48 4673
626665.8499087333 1012876.3678441985 146.5 14 14 52 4673
626660.9841191372 1012879.1057144308 154.2 14 14 56 4673
626661.2787155503 1012876.3310824011 146.7 14 15 00 4673
626666.0470660856 1012876.5675211677 147.0 14 15 08 4673
626653.2418483146 1012891.3332527715 136.6 14 16 00 4673
626653.039798058 1012872.0805039721 132.2 14 17 48 4673
626671.1330081505 1012866.8527137404 150.9 14 17 52 4673
626669.8288754391 1012869.1817883156 155.2 14 17 56 4673
626659.1931459802 1012875.6166840646 143.0 14 18 00 4673
626689.9721088235 1012903.194614992 145.9 14 18 08 4673
626724.5419555488 1012910.2609428859 177.2 14 18 12 4673
626693.1468245598 1012903.5144150216 143.7 14 18 17 4673
626698.2406839663 1012905.0456957871 176.1 14 18 21 4673
626703.4465201483 1012905.9249098474 170.9 14 18 24 4673
626702.2507130806 1012908.7408858676 170.5 14 18 28 4673
626750.1547053746 1012996.5518052748 78.8 15 06 32 4673
626768.1464500058 1013002.3928730994 143.0 15 06 36 4673
626770.2116505228 1013012.8825520191 151.8 15 06 40 4673
626770.9243020548 1012996.2534914989 130.1 15 06 44 4673
626795.1822049282 1012980.7283480415 156.0 15 06 49 4673
626840.6345361534 1012990.0523704463 203.5 15 06 52 4673
626866.8491775318 1012977.7293304987 163.2 15 06 56 4673
626872.6212552896 1012973.3688562574 132.5 15 07 00 4673
626873.6224761195 1012986.6749391285 187.0 15 07 08 4673
626891.8279723257 1012973.8507119435 159.0 15 07 13 4673
626892.0321208359 1012971.8719709476 135.6 15 07 17 4673
626903.1033178471 1012970.1382180466 145.7 15 07 20 4673
626894.7499341447 1012984.4426741531 155.7 15 07 24 4673
626904.4186971168 1013005.3845432514 149.1 15 07 28 4673
626918.1442560906 1013053.0889402438 143.9 15 07 32 4673
626932.2832719247 1013105.4833019741 179.2 15 07 37 4673
626923.1813633458 1013120.1944959266 204.7 15 07 41 4673
626917.0228634945 1013090.9039779472 159.1 15 07 45 4673
626915.4726620163 1013077.4634313624 140.9 15 07 49 4673
626914.7900962566 1013043.6345691513 100.7 15 07 53 4673
626916.6093982289 1013093.0479181207 106.7 15 07 56 4673
626904.1363836968 1013134.387208994 121.4 15 08 00 4673
626849.3358294119 1013233.700834735 111.5 15 08 08 4673
626838.1497460888 1013264.4063930197 108.2 15 08 12 4673
626819.7112539252 1013288.2437266414 92.9 15 08 16 4673
626768.705721895 1013321.364886822 95.2 15 08 20 4673
626702.8085731673 1013362.0131323425 90.8 15 08 24 4673
626690.1742676556 1013357.7816126004 99.3 15 08 28 4673
626684.8943465434 1013335.4716063177 32.4 15 08 33 4673
626683.873858182 1013365.866981986 120.7 15 08 36 4673
626670.5147006875 1013378.6515211157 132.8 15 08 40 4673
626677.1535212074 1013347.2678721278 105.8 15 08 52 4673
626635.5112230766 1013325.2947049241 92.7 15 08 56 4673
626554.120713261 1013355.5321188151 65.3 15 09 00 4673
626552.8370090884 1013354.9198136973 62.1 15 09 08 4673
626573.9102905976 1013355.8056066894 100.5 15 09 13 4673
626558.0081555343 1013356.3186341337 55.4 15 09 16 4673
626547.031450879 1013369.7632669143 61.4 15 09 20 4673
626527.2332900367 1013385.8999389113 60.5 15 09 24 4673
626543.4103709129 1013385.3103746682 58.1 15 09 29 4673
626544.543579132 1013378.0156776563 55.2 15 09 33 4673
626528.6760490627 1013378.0201553542 61.6 15 09 36 4673
626538.5902354012 1013377.2446637588 66.8 15 09 40 4673
626535.8126661808 1013376.4506461656 75.8 15 09 44 4673
626538.3743966266 1013376.0165268376 78.5 15 09 48 4673
626542.170313315 1013388.2257338403 87.0 15 09 52 4673
626547.9353185757 1013386.0436406208 55.8 15 09 57 4673
626540.6748439467 1013385.1136270539 82.2 15 10 01 4673
626544.6475135111 1013465.6512161973 105.2 15 10 33 4673
626538.0913720194 1013450.6686499738 93.7 15 10 36 4673
626561.5357774643 1013455.7198712914 127.3 15 10 41 4673
626549.7363064921 1013455.0185929465 100.8 15 10 44 4673
626549.081532846 1013453.6010627698 81.3 15 11 00 4673
626536.8847508791 1013432.8502350003 87.7 15 13 12 4673
626542.858024487 1013403.3774920007 66.0 15 13 16 4673
626551.7516626199 1013378.1493429341 48.4 15 13 20 4673
626536.2727190205 1013373.4774986748 81.6 15 13 24 4673
626534.330519755 1013382.9038125445 71.5 15 13 28 4673
626535.0576485497 1013375.4530021395 79.1 15 13 32 4673
626536.685358885 1013375.0158917356 79.6 15 13 36 4673
626537.3012311356 1013381.7190541311 58.9 15 13 40 4673
626542.7679900511 1013380.0225600698 63.4 15 13 44 4673
626544.9388099875 1013378.1275240856 75.2 15 13 48 4673
626539.0649243074 1013373.1325819695 67.6 15 13 52 4673
626529.3736341386 1013366.0686161906 139.3 15 13 56 4673
626539.4471398591 1013360.1516322212 69.5 15 14 00 4673
626546.4153629412 1013373.4215150088 92.7 15 14 08 4673
626545.0271987618 1013384.8400555844 83.2 15 14 12 4673
626550.9398358604 1013381.1655960538 59.0 15 14 16 4673
626556.2930130089 1013428.6550372975 74.5 15 14 20 4673
626549.4162601486 1013455.4488326253 43.6 15 14 24 4673
626520.8154138373 1013454.7048119006 49.0 15 14 28 4673
626521.6798195224 1013445.5625564218 44.6 15 14 32 4673
626490.4579450986 1013429.4505089811 72.4 15 14 52 4673
626485.4702537492 1013398.2065582401 106.0 15 14 56 4673
626460.2256120747 1013392.5524905688 79.6 15 15 00 4673
626432.5866958128 1013407.115981629 66.6 15 15 08 4673
626420.6377131628 1013391.3200060322 101.4 15 15 12 4673
626378.5004010125 1013362.6222346422 108.9 15 15 16 4673
626361.457645305 1013331.5277478658 91.8 15 15 20 4673
626352.4216941515 1013329.1324289951 52.2 15 15 24 4673
626224.8670245621 1013287.5777462103 60.0 15 15 36 4673
626223.7743332931 1013295.9673220562 76.8 15 15 40 4673
626190.6967338428 1013258.7176692652 -13.5 15 15 48 4673
626237.4603160094 1013277.1459914431 88.2 15 15 52 4673
626235.090773298 1013293.0952004438 80.2 15 15 56 4673
626239.0143433842 1013306.6538558744 71.0 15 16 00 4673
626221.117631991 1013298.6127702135 58.6 15 16 08 4673
626228.9096795034 1013243.214672262 56.0 15 16 12 4673
626217.1272798589 1013237.1503986892 56.1 15 16 16 4673
626240.0340482537 1013221.355250697 97.2 15 16 20 4673
626235.3905413809 1013223.3308686704 67.9 15 16 24 4673
626260.269635284 1013198.9830929864 73.2 15 16 28 4673
626348.7862061616 1013136.1133887946 207.1 15 16 37 4673
626280.5686671776 1013173.9572114537 58.8 15 16 45 4673
626293.7400208281 1013151.142288861 142.3 15 16 53 4673
626236.7558278197 1013126.1570176745 112.4 15 17 04 4673
626218.3880764471 1013117.6278854505 91.9 15 17 08 4673
626212.9356033118 1013114.845959644 92.9 15 17 12 4673
626194.105149204 1013117.0085026372 70.7 15 17 16 4673
626195.6940813723 1013121.8348882475 74.1 15 17 20 4673
626220.290922797 1013113.6198874285 123.6 15 17 24 4673
626231.1755455523 1013115.2248925912 106.8 15 17 36 4673
626231.138508101 1013109.6183392745 93.2 15 17 40 4673
626241.4269383918 1013122.4232554997 107.9 15 18 00 4673
626242.0936362925 1013123.5533068349 109.6 15 18 08 4673
626219.2875947556 1013124.995423885 78.5 15 18 12 4673
626235.4504834893 1013121.9950189338 75.2 16 06 00 4673
626230.002855453 1013121.1372079771 103.2 16 06 16 4673
626230.5254562362 1013115.7757192474 84.8 16 06 24 4673
626213.2594884037 1013126.9776820659 57.1 16 06 28 4673
626233.6302872172 1013107.0055377991 79.5 16 06 32 4673
626229.2807712205 1013130.4679021791 70.2 16 06 36 4673
626185.2273520646 1013164.8725982178 113.0 16 06 40 4673
626184.0903269182 1013173.3836710694 110.4 16 06 44 4673
626196.5227325645 1013178.9302784074 75.9 16 06 48 4673
626190.6103586206 1013199.7337202029 56.7 16 06 52 4673
626216.977951018 1013252.9408278789 50.9 16 06 56 4673
626231.6212057368 1013295.6495869249 86.2 16 07 00 4673
626239.2574981902 1013299.3341978405 43.6 16 07 08 4673
626231.4935243446 1013308.1005527541 64.3 16 07 12 4673
626227.148440562 1013302.6571666552 62.9 16 07 16 4673
626234.2331121069 1013300.1475019985 53.3 16 07 20 4673
626242.1969736906 1013304.4855854892 56.9 16 07 24 4673
626274.9815532598 1013302.7325792727 87.1 16 07 28 4673
626332.4666511158 1013287.8109989116 59.2 16 07 32 4673
626349.111080721 1013281.9702648866 75.7 16 07 36 4673
626337.2337406807 1013291.8624315017 84.9 16 07 40 4673
626342.7231899162 1013286.505763326 75.0 16 07 44 4673
626340.685180424 1013294.9807813122 71.3 16 07 48 4673
626343.0796389792 1013298.7481778299 92.0 16 07 52 4673
626367.5911620357 1013303.4488229183 102.8 16 07 56 4673
626370.384693536 1013323.306979804 120.4 16 08 00 4673
626400.9833292272 1013252.6000582228 93.8 16 08 08 4673
626394.0898781655 1013270.9012221688 110.1 16 08 12 4673
626408.5391372344 1013284.8805998972 112.4 16 08 17 4673
626420.1101045541 1013281.4564400709 100.4 16 08 20 4673
626435.4157490435 1013319.699964937 157.1 16 08 24 4673
626423.9730260778 1013293.3451598176 97.8 16 08 28 4673
626420.1843355215 1013282.2970904724 86.9 16 08 32 4673
626407.3470155415 1013283.1185543485 100.0 16 08 36 4673
626381.7955508569 1013284.0431141935 97.5 16 08 40 4673
626380.8462830688 1013302.5512768005 99.2 16 08 44 4673
626445.8273779964 1013345.4764567999 111.5 16 08 48 4673
626400.1845477227 1013309.9446242918 59.3 16 09 01 4673
626449.4162876278 1013333.1029068972 101.1 16 10 00 4673
626480.0921263269 1013341.3177014948 44.8 16 10 08 4673
626495.930980996 1013346.8421446122 90.5 16 10 12 4673
626538.7199504942 1013371.0525601539 86.1 16 10 16 4673
626528.5869371339 1013388.6909069141 116.1 16 10 20 4673
626541.4276196564 1013383.3799208148 84.1 16 10 24 4673
626535.1206272878 1013383.2380847709 65.0 16 10 28 4673
626537.6924005633 1013386.5305670899 54.2 16 10 32 4673
626545.1133562891 1013392.2492383722 83.9 16 10 36 4673
626555.9470217426 1013402.8775667985 91.1 16 10 40 4673
626549.7888342126 1013376.8603205314 76.1 16 10 44 4673
626551.6605674769 1013379.1442774963 109.8 16 10 48 4673
626557.4907894484 1013387.4786192183 93.0 16 10 53 4673
626543.0358317425 1013382.1686833722 69.0 16 10 56 4673
626548.8584346145 1013403.1755476262 91.8 16 11 05 4673
626541.789218763 1013397.4248275141 90.1 16 11 09 4673
626542.6046109484 1013389.8637190104 90.6 16 11 12 4673
626547.0306308724 1013404.3307911323 113.8 16 11 16 4673
626505.6964606373 1013334.1676863706 2.2 16 11 20 4673
626554.5756480972 1013385.0365070694 109.1 16 11 24 4673
626537.8703920963 1013368.6944707708 69.9 16 11 29 4673
626541.0527685425 1013394.0608158086 80.7 16 11 32 4673
626556.6489275051 1013454.7642821012 163.3 16 11 36 4673
626535.9490993818 1013409.3377821933 75.4 16 11 40 4673
626528.8064471869 1013375.0459522605 71.7 16 14 00 4673
626532.3177779322 1013369.7493227238 67.6 16 14 08 4673
626544.1297001534 1013376.8643129448 83.9 16 14 12 4673
626530.1108531567 1013376.0564134262 76.6 16 14 16 4673
626531.6180433338 1013385.8033988425 76.5 16 14 20 4673
626540.4701955527 1013380.3911758992 66.4 16 14 24 4673
626531.8519066849 1013371.1079734617 64.2 16 14 28 4673
626530.8275828714 1013364.9895810878 55.4 16 14 32 4673
626532.4146331196 1013353.2288772695 58.7 16 14 36 4673
626528.2735226303 1013349.301060687 77.8 16 14 40 4673
626512.0133486094 1013351.8144708534 30.7 16 14 44 4673
626519.8474864374 1013358.9056593878 73.8 16 14 48 4673
626545.2285827897 1013376.856774051 82.5 16 14 52 4673
626548.8383268749 1013316.8119571544 48.7 16 14 57 4673
626565.1727731155 1013311.7001514252 79.7 16 15 00 4673
626574.4358949622 1013270.6159146568 114.8 16 15 08 4673
626551.8325172298 1013229.3743320112 113.0 16 15 12 4673
626563.9835474144 1013195.807770442 75.0 16 15 17 4673
626588.3534890574 1013203.5601213886 136.1 16 15 20 4673
626561.5622124635 1013197.0053459776 94.6 16 15 24 4673
626578.5822400718 1013163.1226370619 103.4 16 15 28 4673
626609.5303672022 1013124.1093693386 106.7 16 15 33 4673
626608.1936101436 1013116.0437537595 109.2 16 15 36 4673
626620.9957612477 1013133.0810199832 95.0 16 15 40 4673
626615.3663754223 1013137.5083303461 101.3 16 15 44 4673
626633.1520477752 1013166.4932268445 103.4 16 15 48 4673
626642.7324278868 1013173.8886002536 112.0 16 15 52 4673
626612.4250019692 1013177.5512410052 106.7 16 15 56 4673
626656.7149938147 1013189.4699997269 125.7 16 16 00 4673
626647.3184018485 1013172.7311398325 107.4 16 16 09 4673
626632.7026618691 1013172.9939332204 100.1 16 16 12 4673
626648.7704914319 1013148.231104675 107.6 16 16 16 4673
626651.9624641597 1013129.4426101902 119.9 16 16 20 4673
626661.484784001 1013130.9549066077 115.6 16 16 24 4673
626655.5161262479 1013131.5218573279 105.8 16 16 28 4673
626647.9077974848 1013129.396443316 107.9 16 16 32 4673
626682.6438989115 1013125.6706127063 125.3 16 17 00 4673
626696.194406974 1013108.0653611684 99.7 16 17 09 4673
626776.4380741882 1013106.6860661844 134.6 16 17 36 4673
626794.7938883133 1013136.0377935106 119.6 16 17 40 4673
626801.6412962388 1013142.429213713 116.9 16 17 44 4673
626851.6387623 1013159.8402537785 139.8 16 17 49 4673
626844.5727070682 1013149.6773167009 141.4 16 17 53 4673
626841.8479381101 1013149.54693316 165.7 16 17 56 4673
626845.747629721 1013149.9464813708 139.7 16 18 09 4673
626828.5231001253 1013124.2032882712 122.0 16 18 25 4673
626776.4974945971 1013118.9938960571 208.3 16 18 29 4673
626672.8030284723 1013089.8330320353 169.2 17 06 01 4673
626679.9765987536 1013076.7522061716 207.7 17 06 20 4673
626682.182885613 1013070.6552209754 207.2 17 06 24 4673
626694.4775998273 1013078.0150720713 182.3 17 06 29 4673
626712.9402253332 1013077.4992353827 83.7 17 06 33 4673
626712.932461009 1013083.3489317329 116.0 17 06 37 4673
626722.9014263311 1013079.223055637 92.3 17 06 41 4673
626718.6911766889 1013079.7182289895 109.8 17 06 45 4673
626727.9874572429 1013090.0431010812 119.2 17 06 48 4673
626734.3055031653 1013114.1699622592 115.6 17 06 52 4673
626749.6386424403 1013167.762333425 209.6 17 06 57 4673
626760.5548051476 1013142.3969420014 135.4 17 07 05 4673
626728.0470657772 1013153.704629689 104.7 17 07 16 4673
626716.663396801 1013156.9523786406 73.5 17 07 20 4673
626691.966088037 1013186.1881571695 112.4 17 07 24 4673
626674.0422728612 1013190.0342042566 74.5 17 07 28 4673
626613.4577820876 1013177.5987818942 47.1 17 07 32 4673
626616.652404053 1013181.9880125668 145.7 17 07 36 4673
626569.3826110424 1013211.8260877881 105.6 17 07 40 4673
626542.6139405379 1013201.6443506991 113.6 17 07 45 4673
626538.7446286404 1013154.0048605958 49.0 17 07 48 4673
626551.824525975 1013235.3014315707 116.5 17 07 52 4673
626547.2127141578 1013320.0246495609 97.7 17 07 57 4673
626537.6264258476 1013372.8183494711 83.2 17 08 00 4673
626544.6872832668 1013367.4556811686 72.3 17 08 08 4673
626550.7330577273 1013387.4016853609 120.2 17 08 12 4673
626546.305194902 1013373.509626751 86.4 17 08 16 4673
626548.8599744774 1013371.8148658248 46.7 17 08 20 4673
626546.3300254497 1013379.4810640303 52.6 17 08 24 4673
626545.1219366173 1013393.0012146096 87.4 17 08 28 4673
626543.1086035089 1013393.7577736495 78.4 17 08 32 4673
626531.3690734146 1013388.0584477591 65.3 17 08 36 4673
626530.1298086531 1013373.568408523 70.7 17 08 40 4673
626545.1729424916 1013380.5057589272 75.0 17 08 44 4673
626539.6978616762 1013384.8008723968 86.7 17 08 48 4673
626536.2478118839 1013388.1183030515 92.7 17 08 52 4673
626516.679091231 1013370.3516741702 70.1 17 08 56 4673
626542.0967725784 1013380.307920339 64.5 17 09 00 4673
626547.4165889041 1013373.0266309666 63.9 17 09 08 4673
626541.9135204055 1013382.6295281403 77.8 17 09 12 4673
626560.748430441 1013355.0336164865 80.9 17 09 16 4673
626534.3753363721 1013375.7715012222 66.5 17 09 20 4673
626538.4296467232 1013372.4891795552 72.9 17 09 24 4673
626490.6070758036 1013389.7304056678 33.1 17 09 28 4673
626530.6828440137 1013372.442256342 113.1 17 09 36 4673
626533.6431226418 1013367.652533532 69.5 17 09 40 4673
626536.6234183235 1013370.3381299607 66.0 17 09 44 4673
626531.5645775493 1013371.6157245792 68.3 17 09 48 4673
626530.5731717394 1013372.3755567407 78.1 17 09 52 4673
626533.35421148 1013372.0858942225 66.6 17 10 00 4673
626541.3937400266 1013363.0771962933 23.3 17 10 16 4673
626529.1945726424 1013380.8084491949 107.0 17 10 20 4673
626541.1305980127 1013390.3455535931 88.3 17 10 24 4673
626551.1818924738 1013429.1031058473 114.3 17 11 01 4673
626536.7030243523 1013390.0880971914 100.2 17 11 48 4673
626544.2257487187 1013384.6163275199 87.5 17 11 52 4673
626547.227978756 1013373.5899884984 77.1 17 11 57 4673
626539.4496672864 1013352.4994561755 47.3 17 12 05 4673
626540.2120533785 1013385.5102355138 108.7 17 12 09 4673
626557.6414575381 1013381.6072664211 102.0 17 12 12 4673
626588.5891834457 1013366.6784803347 68.7 17 12 16 4673
626639.8728967792 1013356.4039841504 59.6 17 12 21 4673
626680.0558228451 1013363.9969850512 76.9 17 12 25 4673
626665.992801301 1013363.2552444153 59.8 17 12 28 4673
626674.789502385 1013375.1487573632 84.7 17 12 32 4673
626657.5194110535 1013384.1941916568 80.1 17 12 36 4673
626682.4851557922 1013380.8683372725 121.1 17 12 41 4673
626703.833628586 1013354.1873017559 91.8 17 12 52 4673
626721.6604701449 1013346.2937101448 101.4 17 12 56 4673
626721.0695032326 1013345.5398658215 127.3 17 13 00 4673
626731.9718525108 1013324.4649620649 45.7 17 13 09 4673
626719.1359722614 1013331.6889543266 81.7 17 13 17 4673
626690.2774702761 1013325.5918876115 101.7 17 13 21 4673
626730.5958531434 1013342.3525164984 91.8 17 14 00 4673
626732.6150938631 1013353.4613011407 93.8 17 14 08 4673
626730.6979004752 1013344.796678635 93.2 17 14 16 4673
626737.0332330803 1013360.0882009733 107.5 17 14 20 4673
626704.831565984 1013347.9648051546 84.2 17 14 24 4673
626707.5522393542 1013352.7948499083 90.2 17 14 28 4673
626694.6089129406 1013338.698535287 63.2 17 14 32 4673
626645.3450517473 1013298.1675925143 42.2 17 14 36 4673
626636.7727903709 1013346.5302477936 75.2 17 14 40 4673
626634.5237921743 1013335.1000511497 72.3 17 14 44 4673
626653.8442639648 1013296.6024691311 94.2 17 14 48 4673
626649.035957234 1013315.7064672861 105.5 17 14 52 4673
626654.0090307833 1013317.1931298038 102.4 17 14 56 4673
626647.2007349646 1013312.3168151515 111.5 17 15 00 4673
626630.3640250412 1013282.1296114667 107.2 17 15 08 4673
626655.3383381958 1013283.0058275084 117.5 17 15 12 4673
626633.4116514632 1013267.233095643 125.1 17 15 17 4673
626614.0939307993 1013246.5700112284 137.2 17 15 20 4673
626580.0610535231 1013243.4863690101 115.0 17 15 24 4673
626537.2738347736 1013228.9849145868 100.6 17 15 28 4673
626536.4111946945 1013227.2792099741 92.7 17 15 32 4673
626539.9955368446 1013216.3431983943 128.3 17 15 36 4673
626503.579753409 1013181.8470850094 103.2 17 15 40 4673
626478.5668646053 1013189.5740256357 93.4 17 15 48 4673
626446.4960336236 1013181.1446814457 90.0 17 15 52 4673
626444.7779748243 1013189.2115723664 76.7 17 15 56 4673
626455.4909135178 1013186.0832417443 88.5 17 16 00 4673
626442.184963304 1013099.8098796181 65.2 17 16 09 4673
626474.7792154141 1013123.2577398657 100.4 17 16 12 4673
626472.1403734705 1013123.7469088314 97.6 17 16 16 4673
626478.5078009565 1013129.0530397948 113.6 17 16 20 4673
626489.1057597338 1013124.0887089923 117.5 17 16 24 4673
626470.9709409246 1013135.4978908414 93.3 17 16 28 4673
626517.3706901104 1013130.2942862874 94.8 17 16 32 4673
626545.6304095361 1013138.1254043216 89.9 17 16 36 4673
626575.5178625303 1013118.0622472896 113.3 17 16 40 4673
626573.8716864189 1013100.242425723 97.4 17 16 44 4673
626603.3977203617 1013048.9390790156 110.0 17 16 49 4673
626597.5814275874 1013032.8088424525 114.8 17 16 53 4673
626578.0891236772 1013011.7139711971 98.4 17 16 57 4673
626569.2553344251 1013001.0699389296 121.9 17 17 01 4673
626559.1203390453 1013005.5712967993 106.1 17 17 04 4673
626580.4049882801 1012971.3926095407 121.4 17 17 08 4673
626621.3269041415 1012954.2399031603 192.0 17 17 13 4673
626603.0715591726 1012955.2098344358 156.6 17 17 25 4673
626577.8203788619 1012954.9409852527 131.4 17 17 28 4673
626574.773273615 1012925.0633856193 121.3 17 17 33 4673
626565.9408142267 1012907.1320945792 130.9 17 17 37 4673
626533.2204499117 1012916.1723741003 83.3 17 17 41 4673
626557.9992126663 1012916.4175631074 121.9 17 17 44 4673
626547.5913289147 1012913.4759733632 118.1 17 17 48 4673
626504.5224169643 1012904.4695606461 120.7 17 17 56 4673
626506.5258033361 1012934.2995753116 141.3 17 18 00 4673
626486.0345767783 1012919.7147666222 119.4 17 18 08 4673
626487.6054862441 1012919.8635477087 115.8 17 18 12 4673
626485.6260881359 1012920.3105951648 130.0 17 18 16 4673
626476.2298760456 1012930.8852169298 90.2 18 06 01 4673
626482.1426718433 1012944.350741669 101.3 18 06 25 4673
626492.4002793721 1012970.2152039096 129.3 18 06 29 4673
626511.9953481681 1013000.4221998304 141.7 18 06 32 4673
626552.7339026956 1012992.4691555377 105.3 18 06 36 4673
626571.2088727051 1013025.8573261505 145.8 18 06 40 4673
626558.908834462 1013016.7171524925 168.6 18 06 49 4673
626588.3873061016 1013014.5888729568 100.5 18 06 52 4673
626572.1161422685 1013006.7629464399 90.3 18 06 56 4673
626578.6614378939 1013018.29535493 111.0 18 07 00 4673
626637.2186667039 1013125.082719599 117.1 18 07 08 4673
626634.714408653 1013169.3069830427 114.3 18 07 12 4673
626634.8398885448 1013167.8698357481 108.6 18 07 16 4673
626634.7272700683 1013165.2929441569 111.2 18 07 20 4673
626604.6875199545 1013212.3151454297 130.2 18 07 24 4673
626609.1628400908 1013238.8356792643 98.8 18 07 28 4673
626635.3555368634 1013284.7221373268 91.8 18 07 32 4673
626632.7849723853 1013318.7727635619 112.1 18 07 36 4673
626651.1948642817 1013293.5308915989 104.7 18 07 40 4673
626661.8526120752 1013300.7638562848 116.1 18 07 45 4673
626620.35695788 1013322.1719998328 79.2 18 07 49 4673
626632.0031860046 1013346.702949993 131.6 18 07 52 4673
626683.0705126175 1013311.3923311441 92.0 18 07 57 4673
626670.1495321258 1013334.882492765 128.0 18 08 00 4673
626650.2358158798 1013359.6219222492 112.2 18 08 33 4673
626681.6671067865 1013300.1307124643 57.8 18 09 01 4673
626601.9167420443 1013360.3185549272 118.9 18 09 05 4673
626601.8837067568 1013339.7614937054 111.3 18 09 08 4673
626643.8127601269 1013299.6886959265 97.1 18 09 13 4673
626675.0048867114 1013297.6765794997 128.9 18 09 16 4673
626708.8247259086 1013332.9165104508 109.9 18 09 25 4673
626698.7613127104 1013349.382891352 112.4 18 09 28 4673
626695.8243073928 1013343.4795204886 51.6 18 09 32 4673
626710.7519486812 1013348.7357382287 105.8 18 09 36 4673
626707.263512541 1013329.7488948652 93.9 18 09 41 4673
626679.3837552373 1013357.691727982 140.0 18 09 45 4673
626683.12462647 1013352.7828776069 113.9 18 09 48 4673
626719.6702873653 1013391.2273489418 121.0 18 09 52 4673
626742.6298788732 1013396.6973280885 35.7 18 09 56 4673
626749.4793945062 1013392.141255046 29.1 18 10 01 4673
626746.5074694932 1013393.7019689628 83.9 18 10 05 4673
626740.337403339 1013412.5361991746 139.6 18 10 08 4673
626732.3149302206 1013375.1009941053 17.7 18 10 12 4673
626782.565120306 1013406.125287592 97.6 18 10 41 4673
626778.2470004475 1013395.7278971055 88.5 18 10 45 4673
626801.3555515513 1013354.7765740242 96.9 18 10 48 4673
626790.0246828719 1013355.2820615621 104.7 18 10 53 4673
626796.8701006826 1013403.3734954008 149.9 18 11 01 4673
626783.636468237 1013332.5040396962 128.4 18 11 05 4673
626785.7959504181 1013334.147563826 107.6 18 11 08 4673
626775.375481316 1013324.8916945818 100.1 18 11 12 4673
626753.5423292961 1013255.9961860359 118.5 18 11 29 4673
626797.1218305638 1013287.2534191336 154.0 18 11 41 4673
626709.830344854 1013338.0064497284 150.1 18 12 29 4673
626692.319676866 1013298.6941391586 102.8 18 12 37 4673
626671.5132018913 1013289.9800255297 106.3 18 12 41 4673
626638.6520322466 1013301.8948299765 95.0 18 12 45 4673
626638.5457232594 1013297.349621387 89.1 18 12 53 4673
626641.6789539715 1013279.7441523379 76.0 18 12 56 4673
626620.9902004497 1013285.7266230352 178.9 18 13 01 4673
