629067.8787603492 1012491.3068789862 80.5 17 05 16 4653
629025.2287877768 1012475.0670444248 73.6 17 05 20 4653
628988.5284259894 1012511.3175972501 73.2 17 05 24 4653
628980.5241569047 1012485.6918696188 79.3 17 05 28 4653
628962.544247062 1012496.4259933333 104.5 17 05 32 4653
628923.8924808516 1012618.9238083436 98.2 17 18 45 4653
628908.503878789 1012664.0240695318 93.6 17 18 48 4653
628930.7408325617 1012705.8521478882 90.4 17 18 52 4653
628949.1385101017 1012752.3121486608 108.1 17 18 56 4653
628964.6527071968 1012725.9890530058 95.2 17 19 00 4653
628880.6649024884 1012722.618925698 107.3 17 19 08 4653
628844.9585398957 1012723.7189545534 112.6 17 19 12 4653
628803.5912755419 1012698.3384285015 120.1 17 19 16 4653
628750.1320782686 1012701.2274309008 124.2 17 19 20 4653
628754.690134427 1012647.9420132439 97.5 17 19 24 4653
628697.7887739262 1012682.0149083395 83.6 17 19 28 4653
628649.1076800997 1012665.2692836485 110.1 17 19 32 4653
628604.8984222191 1012581.1278500928 118.2 17 19 36 4653
628603.8171093444 1012514.8971395446 110.9 17 19 40 4653
628643.0097405793 1012455.5539281061 106.3 17 19 44 4653
628628.3544537489 1012423.9352758237 105.1 17 19 48 4653
628666.0874092352 1012370.8130597898 95.0 17 19 52 4653
628682.7346284798 1012344.1065143269 94.8 17 19 56 4653
628681.1820902551 1012263.9852366986 92.9 17 20 00 4653
628749.1394849751 1012175.7080420229 68.9 17 20 08 4653
628722.198205911 1012083.362305631 80.1 17 20 12 4653
628679.4940638659 1012066.7135948413 84.6 17 20 16 4653
628672.8566372688 1012046.4556151676 86.0 17 20 20 4653
628676.2153976469 1012047.6497588463 99.0 17 20 24 4653
628669.2027369571 1012041.4012217096 101.4 17 20 28 4653
628662.0061109855 1012041.0350174299 109.3 17 20 32 4653
628661.641463111 1012041.6530874406 98.0 17 20 36 4653
628654.1362712808 1012044.9350667442 104.0 17 20 40 4653
628592.1662083112 1012022.1639633946 87.1 17 20 48 4653
628576.482644513 1012043.1345114972 80.6 17 20 52 4653
628579.1960296093 1012050.1763028906 90.7 17 20 56 4653
628580.0543648076 1012043.0465949425 92.0 17 21 00 4653
628666.5789143103 1011932.4700296238 80.4 17 21 16 4653
628666.6764617728 1011929.5067658827 74.4 17 21 20 4653
628698.6847709778 1011879.694414348 64.5 17 21 28 4653
628721.6360146021 1011850.8077939685 73.3 17 21 32 4653
628741.2800567119 1011825.1504595018 54.9 17 21 36 4653
628780.6157990507 1011830.1329624838 20.7 17 21 40 4653
628784.0248877537 1011825.9972528357 52.8 17 21 44 4653
628786.2440142042 1011826.2035206784 65.1 17 21 48 4653
628782.9583588738 1011829.5545037881 59.1 17 21 52 4653
628784.281246597 1011828.2650060387 63.9 17 21 56 4653
628768.6658642432 1011834.9817772723 61.9 17 22 00 4653
628783.175445382 1011840.5138283394 54.0 17 22 08 4653
628782.5074124928 1011846.5604578521 57.6 17 22 12 4653
628793.374194977 1011870.6362216431 61.5 17 22 16 4653
628851.3105529366 1011930.8041906108 59.3 17 22 20 4653
628897.8109602924 1011993.1687602693 73.0 17 22 24 4653
628956.8273822765 1012055.6405446673 73.8 17 22 28 4653
628972.9850695764 1012051.1040771533 77.5 17 22 32 4653
628987.0731903589 1012054.423213692 74.0 17 22 36 4653
628977.518995026 1012049.1283892564 86.5 17 22 40 4653
628962.682828231 1012049.4228330989 55.4 17 22 44 4653
628962.6619316351 1012049.0910205165 68.0 17 22 48 4653
628976.7326585386 1012047.6329758402 81.8 17 22 52 4653
628967.3028264078 1012048.0113902271 75.9 17 22 56 4653
628973.9044001587 1012045.511650163 68.9 17 23 00 4653
628958.6178234507 1012052.5058658123 66.1 17 23 08 4653
628956.8618661204 1012051.8034793821 72.8 17 23 12 4653
628972.7364551955 1012059.949786374 72.6 17 23 28 4653
628968.8971761654 1012061.2089591424 75.1 17 23 32 4653
628963.9843989247 1012068.1595801277 80.5 17 23 36 4653
628974.6558197904 1012074.5749166473 71.2 17 23 40 4653
628968.7219661574 1012061.0203995012 75.2 17 23 44 4653
628963.0874604227 1012060.1394984591 71.0 17 23 48 4653
628952.4394049537 1012066.7839157298 65.0 17 23 52 4653
628958.0003463216 1012059.8906968255 68.7 17 23 56 4653
628959.1711512599 1012061.431595505 72.4 18 00 00 4653
628950.4348173344 1012058.0746195108 66.2 18 00 08 4653
628953.7571871228 1012053.5737227093 71.6 18 00 12 4653
628949.170949867 1012054.7419977754 69.7 18 00 16 4653
628945.6805780908 1012056.8427291431 70.6 18 00 20 4653
628948.7972128764 1012061.5194248888 75.8 18 00 24 4653
628954.1511143111 1012070.9473584417 72.1 18 00 28 4653
628949.3059855434 1012097.6038224997 78.7 18 00 32 4653
628950.7642277066 1012101.9876021487 75.1 18 00 36 4653
628957.9096144582 1012101.2147043258 77.5 18 00 40 4653
628942.3609322853 1012127.94686452 73.3 18 00 44 4653
628923.9245791098 1012197.774280835 76.5 18 00 48 4653
628860.2881317474 1012221.131860799 74.0 18 00 52 4653
628844.5251588327 1012290.0722919136 79.9 18 00 56 4653
628787.8290256948 1012338.5656166454 73.5 18 01 00 4653
628730.6128731016 1012445.5880630782 92.4 18 01 08 4653
628673.8921030016 1012488.2537874043 89.0 18 01 12 4653
628674.0513243102 1012577.7920762599 102.6 18 01 16 4653
628681.2587118254 1012625.4761202541 104.8 18 01 20 4653
628686.9047734288 1012673.4315413128 118.1 18 01 24 4653
628689.7195580297 1012666.1755020908 118.5 18 01 28 4653
628708.2250499846 1012659.3465083502 103.7 18 01 32 4653
628738.4216731312 1012622.4553140426 111.2 18 01 36 4653
628762.0801393965 1012619.2591312776 75.6 18 01 40 4653
628781.815910802 1012639.5819215579 107.3 18 01 44 4653
628827.545123842 1012617.9573816583 98.3 18 01 48 4653
628845.4271918326 1012573.1416772057 78.1 18 01 52 4653
628839.4146692835 1012553.3943531526 111.4 18 01 56 4653
628835.8520653972 1012540.577412229 108.6 18 02 00 4653
628832.505668192 1012528.855932887 104.5 18 02 08 4653
628823.1624177715 1012479.0748956782 71.3 18 02 12 4653
628820.4750471113 1012501.1824353082 88.7 18 02 16 4653
628797.4919422822 1012485.9358051985 89.9 18 02 20 4653
628815.1799857536 1012490.5714843556 146.7 18 02 24 4653
628800.355645012 1012500.785162771 106.9 18 02 28 4653
628811.2828644586 1012499.4827153609 110.9 18 02 32 4653
628811.2622350976 1012512.5644351218 89.5 18 02 36 4653
628827.5697768235 1012505.8167922314 103.5 18 02 40 4653
628801.7368838473 1012501.8180686485 48.6 18 02 44 4653
628831.37039295 1012516.4118192223 113.4 18 02 48 4653
628828.0697957126 1012520.9901984743 116.0 18 02 52 4653
628831.0555363368 1012515.238629986 106.2 18 03 00 4653
628841.0442159969 1012555.788221904 94.9 18 03 20 4653
628852.8861226208 1012543.5633175508 79.3 18 03 24 4653
628839.8363208731 1012582.5007712644 85.1 18 03 28 4653
628887.9318525575 1012532.7962994799 79.8 18 03 32 4653
628940.3208906536 1012531.2862325135 89.5 18 03 36 4653
628963.7069683986 1012510.5510444618 76.7 18 03 40 4653
629012.7202247888 1012489.5124205038 103.4 18 03 44 4653
628990.0600886261 1012510.0287889319 74.1 18 03 48 4653
628995.9173573722 1012493.1289191827 92.7 18 03 52 4653
628991.04416022 1012494.6943407597 96.9 18 03 56 4653
628987.8309437716 1012489.3206569919 73.2 18 04 00 4653
628993.1910997287 1012490.0679770979 69.9 18 04 08 4653
628993.0336498482 1012491.1732788364 71.9 18 04 12 4653
628989.8509250062 1012493.2971218048 88.9 18 04 16 4653
629000.3513617575 1012521.7729397337 99.8 18 04 56 4653
629017.1784045604 1012524.216391519 86.2 18 05 00 4653
628972.5122462144 1012482.6247501071 108.6 18 05 08 4653
628944.9605212081 1012506.9844853051 106.2 18 05 12 4653
628942.7923825079 1012504.6330883979 135.3 18 05 16 4653
628952.9327914116 1012512.0972283874 126.7 18 05 20 4653
628952.9665788288 1012515.2157372398 100.5 18 05 24 4653
628861.507160138 1012565.4091339174 70.7 18 05 32 4653
628879.3720459647 1012546.1155894254 93.2 18 05 36 4653
628948.8892749391 1012511.9734627831 80.2 18 05 45 4653
628976.858399781 1012497.7775333779 96.8 18 06 00 4653
628919.676450464 1012530.1462893046 76.6 18 19 04 4653
629133.1645574123 1012528.1446080093 117.5 18 19 20 4653
629091.7093470993 1012526.3173717995 84.0 18 19 24 4653
629115.2797708658 1012516.4640911416 104.8 18 19 28 4653
629137.4701435303 1012498.4896288525 76.9 18 19 32 4653
629156.9463071832 1012493.9640918126 84.6 18 19 36 4653
629173.1899503435 1012436.1497956011 80.7 18 19 40 4653
629131.2239216642 1012375.3366515076 71.8 18 19 44 4653
629079.454756217 1012365.292744094 99.8 18 19 48 4653
629040.333565108 1012298.0752811942 87.8 18 19 52 4653
629023.1348200754 1012220.8885672129 80.3 18 19 56 4653
628959.1068112553 1012168.8281322521 84.1 18 20 00 4653
628943.1886129861 1012059.4332729719 72.5 18 20 08 4653
628949.5291848544 1012059.4649947517 71.1 18 20 12 4653
628948.985075164 1012054.4538801439 66.5 18 20 16 4653
628954.4539550575 1012055.5775185064 70.1 18 20 20 4653
628954.8436521755 1012050.646854204 65.5 18 20 24 4653
628958.903207551 1012055.9790547338 65.7 18 20 28 4653
628970.8549751278 1012057.3007557854 74.7 18 20 32 4653
628964.9659575304 1012056.9608742564 69.1 18 20 36 4653
628964.9669667266 1012056.651249367 73.8 18 20 40 4653
628963.1976458892 1012053.3059214114 67.9 18 20 44 4653
628958.2211734946 1012056.1979947934 73.4 18 20 48 4653
628962.6030906441 1012053.6578443188 68.8 18 20 52 4653
628966.7873519215 1012051.0728174135 71.9 18 20 56 4653
628967.8844782907 1012051.6182427648 73.8 18 21 00 4653
628962.7889652622 1012053.9459620257 69.7 18 21 08 4653
628969.5819630155 1012050.0314021971 73.3 18 21 12 4653
628970.4714171726 1012050.2333480804 74.1 18 21 16 4653
628967.0904197469 1012059.2347194286 73.1 18 21 20 4653
628967.1336818939 1012066.1904363765 75.0 18 21 24 4653
628959.4620586261 1012086.8109959054 76.5 18 21 36 4653
628957.1232385917 1012103.1030847474 83.4 18 21 40 4653
628963.2267739073 1012098.3126838956 83.6 18 21 44 4653
628961.313293312 1012102.1104503113 80.5 18 21 48 4653
628971.057027546 1012106.5654708218 84.7 18 22 00 4653
628968.5367289551 1012262.7978578625 89.6 18 22 12 4653
628963.322832931 1012345.2636049996 87.6 18 22 16 4653
628975.1136389102 1012470.0601145606 82.8 18 22 24 4653
628934.2564788994 1012497.1299497132 57.3 18 22 32 4653
628914.3412484687 1012541.9721766132 91.7 18 22 36 4653
628818.6417446673 1012456.7558901544 102.8 18 22 48 4653
628841.4134093444 1012594.2496623188 126.6 18 23 00 4653
628774.0080272149 1012688.5993707947 148.0 18 23 16 4653
628745.5250069882 1012661.5689809803 130.7 18 23 20 4653
628701.0470175567 1012690.4407601008 109.3 18 23 24 4653
628699.1363721528 1012666.372021929 120.1 18 23 28 4653
628693.845483577 1012664.6076155055 129.3 18 23 32 4653
628695.7631033328 1012673.0291033201 127.3 18 23 36 4653
628697.9520952676 1012662.2213638695 121.5 18 23 40 4653
628682.3827494239 1012638.0086531714 110.2 18 23 44 4653
628631.0542029331 1012648.0040855143 123.8 18 23 48 4653
628629.5828080354 1012617.2576690698 121.7 18 23 52 4653
628692.9125134484 1012576.4822410302 99.8 18 23 56 4653
628727.44323117 1012531.4774021202 98.7 19 00 00 4653
628861.7618455816 1012571.5582942978 104.0 19 00 08 4653
628917.8321108236 1012522.8529561718 99.8 19 00 12 4653
628915.1561544376 1012514.4732137445 133.0 19 00 16 4653
628929.3148940762 1012523.0452029511 112.9 19 00 20 4653
628947.0472182366 1012500.6107356119 136.5 19 00 24 4653
628962.4825330336 1012495.1319883585 96.4 19 00 28 4653
628919.9554293905 1012525.4696011711 109.6 19 01 00 4653
628920.7181505816 1012530.835290392 101.5 19 01 08 4653
628993.6194958237 1012496.8590801064 86.9 19 01 16 4653
629034.6486061102 1012484.4640324492 105.5 19 01 20 4653
629096.069037488 1012517.1091001548 104.4 19 01 24 4653
628998.5826710729 1012491.2909009975 97.7 19 01 28 4653
628992.1062263565 1012492.5082904833 88.0 19 01 32 4653
628992.5324946322 1012499.9518175386 68.1 19 01 36 4653
628992.3204482275 1012494.2119446868 101.4 19 01 40 4653
628992.9911258547 1012494.103550607 104.0 19 01 44 4653
628991.1646876724 1012491.4325788349 91.1 19 01 48 4653
628995.8809167988 1012497.5631196063 88.3 19 01 52 4653
628995.5422593176 1012493.5810800194 103.9 19 01 56 4653
628992.7678267213 1012491.8137846984 101.3 19 02 00 4653
628990.948121452 1012490.4476969222 99.6 19 02 08 4653
628993.4941697353 1012491.4844091221 97.5 19 02 12 4653
628995.8065920314 1012496.7666901827 112.8 19 02 16 4653
628988.1783909464 1012493.9772723702 69.9 19 02 20 4653
628890.7403426985 1012524.1137472559 69.8 19 02 52 4653
628860.2329737587 1012531.5228159432 82.8 19 02 56 4653
628839.8064775843 1012537.6930602347 95.5 19 03 00 4653
628838.9727696923 1012533.8752833267 95.9 19 03 24 4653
628846.8306485721 1012513.3880196849 110.0 19 03 28 4653
628845.8452450692 1012468.4334403019 111.1 19 03 32 4653
628852.4222432998 1012470.0804147597 137.8 19 03 36 4653
628869.3324051228 1012544.8222440444 134.1 19 03 48 4653
628860.0401367628 1012577.214456113 87.4 19 03 56 4653
628846.0228919866 1012585.9268369855 100.4 19 04 00 4653
628951.9568715969 1012514.8254096908 87.3 19 04 16 4653
628999.6626156014 1012497.099953751 73.9 19 04 20 4653
629022.1582066771 1012479.8673242063 88.5 19 04 24 4653
629055.8054570073 1012496.9624301457 84.0 19 04 28 4653
629083.4486504168 1012501.8408253317 99.0 19 04 32 4653
629118.3153338565 1012529.1245335938 111.4 19 04 36 4653
629142.6566075173 1012498.583971258 87.9 19 04 40 4653
629177.7871110456 1012502.281544044 105.3 19 04 44 4653
629218.4334130988 1012482.6312762932 100.0 19 04 48 4653
629216.1597344313 1012478.9525383993 103.5 19 04 52 4653
629234.2075652722 1012511.3566296876 101.9 19 04 56 4653
629217.9590078905 1012523.5670379879 95.5 19 05 00 4653
629288.3190611253 1012446.8653482608 79.1 19 05 08 4653
629346.9629436368 1012434.6830038398 84.1 19 05 12 4653
629353.9481111632 1012415.6858036148 62.5 19 05 16 4653
629354.2368587522 1012414.7578620526 83.9 19 05 20 4653
629301.697309203 1012438.7039248294 86.9 19 05 24 4653
629226.8139494901 1012490.5873597458 113.0 19 05 28 4653
629216.7340066902 1012521.804787918 101.7 19 05 32 4653
629206.9919480112 1012513.5125129037 65.3 19 05 36 4653
629159.2173837635 1012484.9812255091 75.6 19 05 40 4653
629054.49867203 1012493.3200329533 88.7 19 05 44 4653
628967.8823533622 1012483.7154674679 79.6 19 05 48 4653
628950.1478505712 1012520.2932961491 67.9 19 05 52 4653
628945.1867127637 1012521.8694941412 76.8 19 06 00 4653
628943.1182883407 1012526.009556875 94.9 19 06 24 4653
628845.0096503906 1012542.774643215 104.3 19 18 48 4653
628849.4991627585 1012537.5477081432 136.6 19 18 52 4653
628850.7098024286 1012533.6038937512 131.0 19 18 56 4653
628862.5747352359 1012544.6675263264 118.4 19 19 00 4653
628985.4809225216 1012512.4134731899 81.8 19 19 08 4653
629044.2066155078 1012488.5535600563 160.6 19 19 12 4653
629024.9590900361 1012480.2634968598 104.3 19 19 16 4653
629029.1049438551 1012469.2299264242 105.9 19 19 20 4653
628994.6191569115 1012419.4663308213 98.8 19 19 24 4653
628967.2539184033 1012346.1721320114 103.7 19 19 28 4653
628975.3990597917 1012254.4602689312 90.7 19 19 32 4653
628973.0288784774 1012165.766175357 103.6 19 19 36 4653
628970.7052585831 1012093.1176141398 110.0 19 19 40 4653
628958.4366136171 1012101.3601779614 84.8 19 19 44 4653
628969.5091873328 1012099.3283954336 106.9 19 19 48 4653
628971.9010727084 1012090.3569747087 120.1 19 19 52 4653
628962.4347793114 1012098.5533816773 113.9 19 19 56 4653
628962.6318992546 1012095.3913934678 110.1 19 20 00 4653
628969.6818681229 1012053.0948352144 95.3 19 20 08 4653
628963.2405203242 1012053.6378056288 82.9 19 20 12 4653
628965.2678486161 1012055.3694847558 81.2 19 20 16 4653
628967.3675937682 1012058.4836687176 90.3 19 20 20 4653
628950.7727378808 1012055.5434047569 81.3 19 20 24 4653
628951.4165434409 1012056.9388296991 81.2 19 20 28 4653
628953.325117024 1012061.3904257532 80.5 19 20 32 4653
628957.4359142652 1012057.7435763046 88.4 19 20 36 4653
628945.9781413936 1012059.9510386249 79.1 19 20 40 4653
628907.5288699121 1012025.7998346715 72.0 19 20 44 4653
628837.2153513954 1011987.0221342606 70.2 19 20 48 4653
628756.1572041861 1011977.7790845778 61.7 19 20 52 4653
628749.4049844387 1011891.4815001243 69.2 19 20 56 4653
628718.4474191016 1011864.8633759496 67.4 19 21 00 4653
628653.1373350054 1011926.3111771245 68.2 19 21 08 4653
628615.2368221502 1011963.2659064059 63.9 19 21 12 4653
628566.1275218832 1012006.9960537218 83.6 19 21 16 4653
628568.6138751569 1012056.8542039213 77.9 19 21 20 4653
628560.5406634442 1012072.6189879365 94.6 19 21 24 4653
628589.0170129621 1012128.9310877798 94.1 19 21 28 4653
628541.9863427626 1012189.1114408558 87.3 19 21 32 4653
628474.4494278982 1012222.5198407439 102.8 19 21 36 4653
628422.8989349705 1012226.2780972666 79.1 19 21 40 4653
628428.7299860346 1012217.3841734568 98.4 19 21 44 4653
628415.774374581 1012244.3460709788 108.1 19 21 48 4653
628384.5489687995 1012256.275965675 103.5 19 21 52 4653
628411.743147934 1012291.2084001268 110.8 19 21 56 4653
628414.4775786821 1012325.6191215337 97.3 19 22 00 4653
628505.3657508655 1012420.7599025458 93.2 19 22 08 4653
628514.5786312463 1012487.116531044 108.9 19 22 12 4653
628525.8870067381 1012557.8811162919 118.0 19 22 16 4653
628518.5392411728 1012624.338751309 98.4 19 22 20 4653
628554.3995113127 1012616.4713376911 117.8 19 22 24 4653
628632.6878756485 1012645.7535390683 124.5 19 22 28 4653
628669.5101848644 1012676.5707391533 124.2 19 22 32 4653
628703.2430513717 1012684.2221731673 107.1 19 22 36 4653
628731.0433497379 1012674.5593855791 114.2 19 22 40 4653
628758.4575547775 1012688.9799989728 122.6 19 22 44 4653
628795.12839758 1012698.7863624291 116.1 19 22 48 4653
628847.028047695 1012661.9106478941 124.8 19 22 52 4653
628846.1778149427 1012609.2047432311 123.4 19 22 56 4653
628850.7421875098 1012611.3538378356 127.2 19 23 00 4653
629028.950457953 1012509.846022002 128.7 19 23 20 4653
629040.7173494991 1012507.1641074198 35.2 19 23 24 4653
629021.4859324449 1012517.5181446462 112.8 19 23 48 4653
629028.6380668574 1012514.6552998543 99.3 19 23 52 4653
629024.3406083592 1012491.319632973 123.9 20 00 00 4653
629004.1758359442 1012518.3020964378 24.6 20 00 12 4653
628998.6207472181 1012493.0935041122 86.5 20 00 16 4653
628993.5767158356 1012479.6524549867 120.9 20 00 20 4653
628990.8455992279 1012474.7116114518 113.0 20 00 24 4653
629027.8891609546 1012525.2686844864 97.7 20 00 48 4653
629025.4548795127 1012523.6573102832 99.7 20 00 52 4653
629026.2510298977 1012518.7722036154 109.4 20 01 00 4653
628987.7719797576 1012517.5076955807 86.6 20 01 20 4653
628984.5110341021 1012509.9222256715 78.0 20 01 24 4653
628952.287397284 1012501.0812053238 97.1 20 01 28 4653
628909.7854001999 1012520.3497011588 92.4 20 01 32 4653
628845.8347497922 1012596.4535808169 108.0 20 01 36 4653
628848.1067592688 1012590.5338161385 103.5 20 01 40 4653
628849.057558549 1012548.2947890008 102.6 20 01 44 4653
628795.7160891755 1012491.3485133302 95.7 20 01 52 4653
628794.3586029178 1012496.5193047195 91.0 20 01 56 4653
628792.8127478536 1012495.4195142052 91.7 20 02 00 4653
628828.6769120842 1012574.1265727659 54.6 20 02 12 4653
628842.3705117836 1012580.4300958967 93.3 20 02 16 4653
628831.6810638191 1012576.2152910943 67.4 20 02 20 4653
628842.1909813472 1012588.3139703311 94.4 20 02 24 4653
628840.4008919335 1012584.6036586866 96.5 20 02 28 4653
628839.7532022438 1012581.0297668283 66.1 20 02 32 4653
628851.1450991385 1012598.9921409787 112.0 20 02 36 4653
628842.5398475697 1012585.7938492626 97.3 20 02 40 4653
628856.2012326232 1012588.4923167231 138.1 20 02 44 4653
628838.1775910289 1012575.5729668163 60.5 20 02 48 4653
628849.5949621671 1012599.2082531393 134.1 20 02 52 4653
628834.7475104014 1012582.7938205109 82.6 20 02 56 4653
628843.570990171 1012579.6046460273 62.2 20 03 00 4653
628848.5397533021 1012582.4296044443 97.2 20 03 08 4653
628840.0501889831 1012591.0604743548 111.7 20 03 12 4653
628837.2013219004 1012585.1572001595 79.6 20 03 16 4653
628839.5906055283 1012587.0891020114 94.9 20 03 20 4653
628902.8703100226 1012524.6619564041 92.2 20 03 56 4653
628994.6411414092 1012493.5891990792 101.5 20 04 00 4653
628925.8819929095 1012524.3831060553 112.0 20 04 32 4653
628865.9252357295 1012538.2647177661 97.3 20 04 36 4653
628838.4033661506 1012523.1359672998 118.3 20 04 40 4653
628828.0959396833 1012502.8438646765 118.4 20 04 44 4653
628820.6971344448 1012507.2209066995 108.9 20 04 48 4653
628834.8104283448 1012523.0026229757 115.9 20 04 52 4653
628883.1286579005 1012549.9760677168 94.0 20 05 00 4653
628955.5020456003 1012539.7178101469 106.4 20 05 08 4653
628904.4701724215 1012522.6767040531 97.5 20 05 12 4653
628848.1822390127 1012597.7218582848 96.1 20 05 16 4653
628846.7569393272 1012623.7038623109 99.0 20 05 20 4653
628865.4649330827 1012615.4490947896 105.5 20 05 24 4653
628873.948951966 1012551.1957232774 107.1 20 05 28 4653
628936.6221387029 1012529.9029627667 85.5 20 05 32 4653
628957.3118044351 1012513.803404032 95.6 20 05 36 4653
628945.0108712879 1012515.1345067989 130.2 20 05 40 4653
628902.7828894501 1012473.9379398562 -222.1 20 05 44 4653
628955.8679830718 1012528.5945028869 187.7 20 05 48 4653
628970.0593392215 1012517.0518362877 86.3 20 05 52 4653
628976.0942439467 1012573.7224315297 131.4 20 05 56 4653
628943.3363155508 1012580.4716625849 92.6 20 06 00 4653
628943.9111339746 1012512.0235807762 73.5 20 06 12 4653
628904.354300215 1012669.4732685518 111.2 20 18 52 4653
628868.831271987 1012624.4171655445 119.4 20 18 56 4653
628851.7110066043 1012566.9585298651 95.6 20 19 00 4653
628977.7808143765 1012484.4997008143 101.3 20 19 08 4653
628997.8461211164 1012504.8568522191 91.4 20 19 13 4653
629011.719800548 1012482.9074395499 95.0 20 19 16 4653
629099.3990354161 1012523.7327479076 114.1 20 19 20 4653
629182.0427344538 1012484.5692144613 102.2 20 19 24 4653
629214.9359414184 1012486.9104157983 97.1 20 19 28 4653
629233.5227658721 1012492.2458889576 107.8 20 19 32 4653
629213.5466725582 1012478.2473371091 106.4 20 19 36 4653
629248.9026937787 1012493.6452436221 103.9 20 19 40 4653
629316.208396921 1012470.5767633771 93.8 20 19 44 4653
629354.5447005169 1012431.5119894291 96.0 20 19 48 4653
629346.2995320371 1012432.568724737 81.8 20 19 52 4653
629345.7175217198 1012432.4451815851 72.6 20 19 56 4653
629351.7908010932 1012410.0280259128 97.0 20 20 00 4653
629324.3019926816 1012310.8569883533 89.7 20 20 32 4653
629264.3957815055 1012325.9214435549 86.8 20 20 36 4653
629217.3924807439 1012303.430388226 72.8 20 20 40 4653
629165.8942382187 1012267.5996385729 88.9 20 20 44 4653
629103.9159080145 1012237.4297154753 73.3 20 20 48 4653
629040.3867360612 1012224.5055619972 81.5 20 20 52 4653
628980.1524439754 1012171.6833928188 61.8 20 20 56 4653
628951.1769837053 1012096.7252684969 77.1 20 21 00 4653
628963.345200957 1012099.065024069 82.1 20 21 08 4653
628960.3969330234 1012096.6779121633 76.2 20 21 12 4653
628959.5930885711 1012093.8112314402 76.2 20 21 16 4653
628960.8653473328 1012097.9400679512 76.4 20 21 20 4653
628953.8498552924 1012089.2033805136 75.9 20 21 24 4653
628952.4134690075 1012061.2547567933 67.9 20 21 28 4653
628962.0071259354 1012057.8137659362 78.1 20 21 32 4653
628954.2918273384 1012051.3748935553 69.6 20 21 36 4653
628952.6579343575 1012053.6807216139 64.4 20 21 40 4653
628964.1912584822 1012055.2664523701 64.2 20 21 44 4653
628964.5140821568 1012053.9958174218 70.1 20 21 48 4653
628962.2363872543 1012051.5334844786 68.4 20 21 52 4653
628959.4716833861 1012050.1422048706 77.5 20 21 56 4653
628954.8421288008 1012061.229497697 72.1 20 22 00 4653
628968.1582685843 1012048.5339115207 82.6 20 22 08 4653
628972.9335805164 1012053.4150625635 75.7 20 22 12 4653
628971.5020913961 1012061.0515777827 73.6 20 22 16 4653
628965.2152066098 1012058.03432714 63.8 20 22 20 4653
628965.9333195526 1012046.7462974078 79.5 20 22 24 4653
628968.5477742059 1012053.7767438858 79.2 20 22 28 4653
628966.154563388 1012056.4118409711 77.2 20 22 32 4653
628960.8703329449 1012055.9522917075 56.2 20 22 44 4653
628969.6957945146 1012065.6790546436 78.7 20 22 48 4653
628955.6500909384 1012089.806388006 92.5 20 22 52 4653
628951.8141637978 1012093.4099005071 91.1 20 22 56 4653
628959.6589139185 1012093.8446204393 96.4 20 23 00 4653
628954.399239 1012112.8253775609 88.2 20 23 08 4653
628986.9301601179 1012179.1918579607 93.2 20 23 12 4653
628976.7012193206 1012239.3037897752 98.4 20 23 16 4653
628980.2079384223 1012313.073090195 96.1 20 23 20 4653
628976.8011179719 1012380.5498792467 107.2 20 23 24 4653
628994.2942599125 1012438.2198976624 90.5 20 23 28 4653
629038.3275055842 1012478.4603993887 102.5 20 23 32 4653
628992.1767869625 1012487.7203405204 110.2 20 23 40 4653
629039.0455106918 1012497.5270000726 107.3 21 00 00 4653
628951.4300584117 1012514.6246452512 105.9 21 00 40 4653
628882.0230148038 1012538.5604547464 118.2 21 00 44 4653
628841.2155617977 1012530.1781105546 113.2 21 00 48 4653
628820.5368798149 1012472.077595327 106.3 21 00 52 4653
628793.2930465481 1012452.5375905703 88.5 21 00 56 4653
628826.0457608339 1012467.6501639186 106.1 21 01 00 4653
628854.4001920846 1012470.0979169635 87.2 21 01 08 4653
628868.7789192945 1012455.0061604424 72.1 21 01 12 4653
628859.2172146749 1012458.7900677504 91.4 21 01 16 4653
628820.127477633 1012466.193328019 81.1 21 01 20 4653
628819.0679555202 1012447.3578540882 60.1 21 01 24 4653
628816.7118323125 1012465.6071794849 78.1 21 01 28 4653
628806.8708071478 1012497.7985655782 96.1 21 01 32 4653
628813.267118191 1012500.9377952431 89.4 21 01 36 4653
628802.4155913832 1012499.243731051 93.8 21 01 40 4653
628790.4710960989 1012458.610381189 84.7 21 01 44 4653
628802.6846648768 1012457.1130721293 83.2 21 01 48 4653
628734.2805949831 1012429.4993445711 106.3 21 01 52 4653
628787.982686566 1012456.7445098343 71.8 21 01 56 4653
628789.9114889229 1012454.9814873243 85.5 21 02 00 4653
628803.8764304774 1012509.5767969629 94.3 21 02 28 4653
628823.9341873967 1012515.4034211015 91.4 21 02 32 4653
628838.1417937173 1012515.7261565118 118.5 21 02 36 4653
628761.8868357503 1012516.6278603426 57.1 21 02 52 4653
628807.1304380475 1012532.7984435644 82.4 21 02 56 4653
628798.8594480425 1012531.6767495015 83.0 21 03 00 4653
628684.4931439973 1012614.2073404687 83.4 21 03 16 4653
628695.3208305367 1012667.1115574226 114.9 21 03 20 4653
628691.9654487898 1012668.2728002864 109.4 21 03 24 4653
628697.9010737437 1012671.1451192161 111.9 21 03 28 4653
628684.3181109023 1012667.9935753659 106.6 21 03 32 4653
628685.1705314469 1012672.8176995835 111.1 21 03 36 4653
628694.0615037425 1012672.5148907107 99.8 21 03 40 4653
628690.6295259205 1012683.7056198652 86.6 21 03 44 4653
628681.1281558101 1012692.6096776443 96.1 21 03 48 4653
628675.0913451562 1012693.8174861821 90.6 21 03 52 4653
628683.48174801 1012688.6253475747 111.1 21 03 56 4653
628685.2604496446 1012699.2137787279 104.4 21 04 00 4653
628683.9525256815 1012695.9141956632 106.8 21 04 08 4653
628679.9653779286 1012695.3593710932 106.6 21 04 12 4653
628676.5836224813 1012650.5960642269 101.8 21 04 36 4653
628683.9976735009 1012604.3750397398 101.3 21 04 40 4653
628667.1558979597 1012579.4504782414 95.7 21 04 44 4653
628681.4836328045 1012563.1089312749 102.2 21 04 48 4653
628683.6806901202 1012543.0676691813 72.9 21 04 52 4653
628639.2749651977 1012444.9701990917 114.1 21 18 41 4653
628663.5410411698 1012380.0051494007 123.7 21 18 44 4653
628704.1444581053 1012299.1695360311 125.1 21 18 48 4653
628743.1575824884 1012197.163486908 87.7 21 18 56 4653
628758.7157698626 1012106.6811094519 130.3 21 19 00 4653
628736.6330766798 1011986.8606424455 63.8 21 19 08 4653
628760.6286274482 1011920.7115092541 100.7 21 19 12 4653
628733.8568666993 1011850.5047429919 75.8 21 19 16 4653
628741.0044864741 1011828.7876910781 72.4 21 19 20 4653
628783.2966723082 1011820.1451263931 55.8 21 19 24 4653
628783.3828929482 1011820.6651396021 60.2 21 19 28 4653
628787.9868136075 1011830.9531347626 74.1 21 19 32 4653
628774.9382105062 1011839.1047566474 64.9 21 19 36 4653
628783.9144194172 1011843.0596055911 65.9 21 19 40 4653
628790.0065982129 1011851.8927698279 89.5 21 19 48 4653
628810.7044249402 1011863.7481126238 81.8 21 19 52 4653
628936.0960672351 1011841.6310013031 82.6 21 20 08 4653
628980.0643403372 1011817.7559750018 67.8 21 20 12 4653
629026.4633818842 1011840.4216110836 60.8 21 20 16 4653
629099.8408791709 1011859.6366993189 66.7 21 20 20 4653
629088.5974047856 1011873.6107021077 84.9 21 20 24 4653
629100.860514162 1011877.2003726725 66.1 21 20 28 4653
629155.0136213386 1011904.4916677576 59.8 21 20 32 4653
629150.3793426623 1011903.5365998693 68.3 21 20 36 4653
629152.5729152188 1011898.1031465348 66.8 21 20 40 4653
629155.288093011 1011904.5699706433 66.3 21 20 48 4653
629181.1661106631 1011928.5289972309 55.0 21 20 52 4653
629133.2271828664 1011973.6999079332 63.9 21 20 56 4653
628963.0937317793 1012058.2154009433 79.0 21 21 08 4653
628960.2645041877 1012053.0199076313 73.4 21 21 12 4653
628958.9375544405 1012045.4407507034 58.3 21 21 16 4653
628947.6963909293 1012085.7110666556 86.9 21 21 28 4653
628952.5130537599 1012098.1340079601 88.1 21 21 32 4653
628937.0860344658 1012087.534257075 97.5 21 21 36 4653
628951.1982373166 1012100.3192361805 83.3 21 21 40 4653
628961.6058575191 1012096.6376199898 84.6 21 21 44 4653
628962.0264911905 1012102.4445194475 78.9 21 21 48 4653
628957.4228906347 1012105.5700287019 84.7 21 22 00 4653
628962.6845915463 1012160.137030813 83.2 21 22 08 4653
628918.8439298962 1012202.2915649693 84.9 21 22 12 4653
628852.144480829 1012261.8656621006 86.9 21 22 16 4653
628886.8166096736 1012332.1093856432 84.1 21 22 20 4653
628872.649146624 1012349.8004943137 94.2 21 22 24 4653
628865.5555952842 1012429.1195922041 94.5 21 22 28 4653
628847.6118449916 1012459.1171773354 97.6 21 22 32 4653
628813.8120687733 1012482.0743727416 93.9 21 22 36 4653
628821.3339411049 1012504.0161184374 95.9 21 22 40 4653
628826.7148841767 1012505.1284024038 114.8 21 22 44 4653
628830.5957001286 1012514.7173991512 119.3 21 22 48 4653
628829.3678078536 1012523.9580101183 115.0 21 22 52 4653
628860.4171909505 1012518.8286621852 136.4 21 22 56 4653
628865.4206949695 1012514.3664153203 125.1 21 23 00 4653
628845.8090216186 1012638.0763663297 106.9 21 23 08 4653
628819.9154959309 1012689.8215426153 121.0 21 23 12 4653
628798.2925363318 1012692.2391878153 133.3 21 23 16 4653
628773.7769445647 1012692.0708760443 134.2 21 23 20 4653
628774.8727903072 1012622.1427312584 162.3 21 23 24 4653
628748.0263439148 1012618.959035491 116.4 21 23 28 4653
628697.8812326066 1012653.6068398763 118.3 21 23 32 4653
628695.5576642641 1012672.0000273987 120.5 21 23 36 4653
628699.5421985916 1012676.7348228456 120.2 21 23 40 4653
628691.2272727875 1012692.4987888478 111.6 21 23 44 4653
628647.7090357034 1012662.8319422336 117.2 21 23 48 4653
628606.7867108115 1012639.1228738953 122.8 21 23 52 4653
628601.1839034276 1012611.6251763601 111.9 21 23 56 4653
628556.1583960499 1012626.4072632262 124.1 22 00 00 4653
628594.3189886047 1012593.7660739581 111.0 22 00 08 4653
628659.6276518313 1012556.0711911413 99.8 22 00 12 4653
628743.8101385128 1012543.617230549 95.8 22 00 16 4653
628798.9572039299 1012538.7763975479 102.6 22 00 20 4653
628828.5413364798 1012514.5448348742 113.6 22 00 24 4653
628828.0674903515 1012521.6979123654 108.3 22 00 28 4653
628839.7981429694 1012506.520115791 130.4 22 00 32 4653
628844.3620229457 1012505.451285472 117.3 22 00 36 4653
628822.7257388484 1012508.5544920048 83.8 22 00 40 4653
628836.2366875893 1012496.7220535516 130.6 22 00 44 4653
628823.3154882025 1012462.4439420255 89.1 22 01 16 4653
628806.940530464 1012476.3902221305 92.8 22 01 20 4653
628806.3640031134 1012508.3242699845 90.7 22 01 24 4653
628828.657570998 1012522.7171840603 104.1 22 01 28 4653
628834.5928842439 1012518.9435742986 109.2 22 01 32 4653
628827.0700941626 1012507.407537697 113.8 22 01 36 4653
628829.4858636402 1012507.9572561072 113.2 22 01 40 4653
628888.9227895951 1012532.2023889283 82.8 22 02 00 4653
628955.322075178 1012514.0291373153 87.7 22 02 08 4653
628961.038214314 1012520.1850503467 89.7 22 02 12 4653
628960.7881582621 1012512.6204592183 100.2 22 02 16 4653
628850.9761276976 1012539.554044982 104.9 22 02 28 4653
628832.8598670146 1012528.0719582869 111.2 22 02 32 4653
628836.1518577648 1012532.8819183755 100.8 22 02 36 4653
628851.6831553197 1012578.8791227004 67.3 22 02 40 4653
628849.5370624276 1012610.2330381767 102.5 22 02 44 4653
628884.9601411386 1012658.993273429 94.0 22 03 00 4653
628957.0512722502 1012748.6998230019 113.9 22 03 12 4653
628968.830603447 1012732.0736059287 108.2 22 03 16 4653
628978.5202582855 1012702.5246516601 78.0 22 03 20 4653
629041.0024084102 1012695.949860477 108.5 22 03 24 4653
629069.2270141036 1012674.1578878124 105.4 22 03 28 4653
629110.6905388432 1012622.9059900659 96.3 22 03 32 4653
629118.9945140723 1012576.8979918441 105.9 22 03 36 4653
629114.6086933512 1012533.5246369548 113.6 22 03 40 4653
629122.9086018944 1012525.7889083878 118.2 22 03 44 4653
629122.8969271225 1012525.9989752641 118.8 22 03 48 4653
629121.0176032318 1012529.4319264134 117.1 22 03 52 4653
629055.4308247708 1012490.5364196313 104.5 22 04 00 4653
629034.2130011254 1012520.302089159 118.7 22 04 08 4653
629032.5012683594 1012512.7880176102 115.1 22 04 12 4653
629005.4998238777 1012479.6139372082 87.4 22 04 16 4653
628993.4640180506 1012500.7289264651 93.1 22 04 20 4653
628973.2532296827 1012477.805812228 98.7 22 04 24 4653
628915.8238576764 1012451.2227731034 91.4 22 04 32 4653
628904.6321724788 1012446.0000237838 84.2 22 04 36 4653
628904.7527328175 1012473.0707662356 70.2 22 04 40 4653
628919.312842929 1012463.0221332001 87.2 22 04 44 4653
628873.2277261013 1012469.020271795 99.3 22 04 48 4653
628835.9635383376 1012472.625461495 100.3 22 04 52 4653
628830.6822490998 1012474.6540151043 75.4 22 04 56 4653
628774.2246145172 1012449.9763605916 62.1 22 05 00 4653
628728.3444875618 1012507.7937927922 86.5 22 05 12 4653
628721.9278147505 1012504.1568948642 101.0 22 05 16 4653
628730.9038784559 1012511.4844851873 93.3 22 05 20 4653
628698.2286093725 1012543.4909861296 43.5 22 05 28 4653
628550.1245627644 1012616.5569638623 131.7 22 18 56 4653
628527.3783471412 1012589.2800121348 103.0 22 19 00 4653
628472.5801001376 1012483.4083044141 146.0 22 19 08 4653
628436.524549148 1012412.6407916968 137.5 22 19 12 4653
628386.7794550324 1012371.4757426227 133.2 22 19 16 4653
628430.8587549579 1012367.2619373146 167.7 22 19 20 4653
628372.6520573763 1012312.5674669569 154.0 22 19 24 4653
628397.0991821811 1012306.8081196407 126.9 22 19 28 4653
628411.8036650349 1012296.2621622541 120.9 22 19 32 4653
628410.0406450385 1012250.3430817054 143.8 22 19 36 4653
628417.1693439591 1012241.1547995727 148.0 22 19 40 4653
628462.3757992708 1012238.4375172752 129.0 22 19 44 4653
628489.1367958557 1012217.2596377928 131.3 22 19 48 4653
628539.984109916 1012186.4178086218 128.8 22 19 52 4653
628581.879334314 1012157.7696245073 122.3 22 19 56 4653
628583.5430022266 1012098.9568070038 107.0 22 20 00 4653
628542.5207209468 1012048.3099529431 109.6 22 20 08 4653
628551.9354565309 1012018.748972797 101.7 22 20 12 4653
628662.3371239685 1011918.9542518472 75.5 22 20 24 4653
628671.2093423747 1011917.711413399 69.8 22 20 28 4653
628652.1966954175 1011928.3317581193 98.4 22 20 32 4653
628683.985638768 1011912.1796563916 66.8 22 20 52 4653
628717.055962966 1011883.8567333942 79.2 22 20 56 4653
628728.4021280283 1011851.780801964 78.2 22 21 00 4653
628760.6400563752 1011842.8954092355 76.0 22 21 08 4653
628772.0627599709 1011827.8382127823 79.8 22 21 12 4653
628776.9207956675 1011854.5926055823 81.6 22 21 16 4653
628816.7229683145 1011925.5827218784 68.2 22 21 20 4653
628867.2167074659 1011990.0170628969 65.4 22 21 24 4653
628924.8850346945 1012051.4117617613 82.7 22 21 28 4653
628948.7919455937 1012069.8793681358 83.0 22 21 32 4653
628950.3154156654 1012098.0826128039 85.0 22 21 36 4653
628955.0340842227 1012103.4833106976 88.6 22 21 40 4653
628960.9246849124 1012099.9639026845 92.9 22 21 44 4653
628947.4519495426 1012106.7649853536 81.6 22 21 48 4653
628965.5125393386 1012071.3271917268 73.9 22 21 52 4653
628963.8227729306 1012067.1748780366 80.6 22 21 56 4653
628951.235518947 1012072.0215546585 74.8 22 22 00 4653
628948.4171386929 1012063.4975948309 69.2 22 22 08 4653
628929.5483298113 1012073.8086483604 61.7 22 22 12 4653
628933.7829923677 1012069.2443742089 65.0 22 22 16 4653
628964.3887347265 1012055.3666193658 77.9 22 22 20 4653
629017.2856986217 1012029.7182841945 60.8 22 22 28 4653
629181.0752677622 1012064.0685275836 100.2 22 22 40 4653
629170.9134763001 1012056.3941653739 86.1 22 22 44 4653
629172.1754553256 1012070.3979117483 84.9 22 22 48 4653
629173.8822628584 1012065.9581049333 91.8 22 22 52 4653
629174.4025751435 1012074.8837362259 83.3 22 22 56 4653
629167.8464319191 1012070.1957903794 90.8 22 23 00 4653
629263.3199979966 1012063.2423760084 70.1 22 23 08 4653
629320.4167761253 1012030.3318719119 66.5 22 23 12 4653
629337.1522161321 1012044.0544610366 78.7 22 23 16 4653
629332.6805128333 1012043.7965647117 75.8 22 23 20 4653
629330.9518174599 1012051.5648024251 62.2 22 23 24 4653
629332.3038551551 1012054.8092633998 63.9 22 23 28 4653
629333.4466677479 1012051.4623756589 68.6 22 23 36 4653
629339.8682920518 1012050.2337942007 80.5 22 23 40 4653
629343.5111614808 1012041.8304404606 77.9 22 23 44 4653
629336.7331925951 1012061.3038251296 54.8 22 23 48 4653
629341.7853908157 1012075.5964285719 79.8 22 23 52 4653
629363.9875208812 1012117.9886068472 72.7 22 23 56 4653
629398.0683142226 1012143.7107663915 65.9 23 00 00 4653
629419.1512968623 1012178.8230559032 73.7 23 00 08 4653
629478.2500951516 1012209.0946481272 73.2 23 00 12 4653
629474.3234360009 1012220.2616052638 73.8 23 00 16 4653
629469.9039079921 1012294.7239071846 64.8 23 00 20 4653
629474.654202108 1012313.9364365434 81.5 23 00 24 4653
629456.8462182254 1012345.935783332 74.1 23 00 28 4653
629425.4107193372 1012341.3654142253 76.0 23 00 32 4653
629391.6735314999 1012331.6012619012 82.1 23 00 36 4653
629329.1639519248 1012309.3800318753 92.9 23 00 40 4653
629255.4727791752 1012315.8183005085 97.0 23 00 44 4653
629211.948931703 1012328.2050005918 95.1 23 00 48 4653
629176.4385813123 1012407.1216801222 107.2 23 00 52 4653
629171.8461473038 1012490.9496429341 109.0 23 00 56 4653
629126.604195962 1012524.7725657996 106.3 23 01 00 4653
629113.5211857117 1012530.0377669747 114.8 23 01 08 4653
629062.8283120363 1012489.9413025388 119.1 23 01 12 4653
629016.4250924459 1012475.5470000936 111.2 23 01 16 4653
628990.0403785988 1012489.1177580275 98.6 23 01 20 4653
628928.3373475897 1012529.6437319973 101.8 23 01 24 4653
628839.1370959036 1012530.6578977882 112.3 23 01 28 4653
628815.1676501179 1012511.2280614822 108.3 23 01 32 4653
628859.075186703 1012539.4809101421 111.8 23 01 36 4653
628889.3611518532 1012532.5687364979 82.1 23 01 40 4653
628914.7416781485 1012489.92276988 86.6 23 01 44 4653
628903.9666926466 1012471.4868889783 76.3 23 01 48 4653
628965.1209080165 1012515.0342066389 94.4 23 01 52 4653
628998.3740524014 1012504.7148181946 82.4 23 01 56 4653
628963.380648588 1012485.934534792 90.0 23 02 00 4653
628917.5537045479 1012507.1273592084 84.8 23 02 08 4653
628924.145108015 1012507.7238695155 90.6 23 02 12 4653
628924.3657851376 1012507.4481351351 91.2 23 02 16 4653
628905.5243287026 1012502.687005442 85.4 23 02 28 4653
628911.9922875488 1012510.8137112969 93.8 23 02 32 4653
628916.4648765188 1012507.41132188 82.1 23 02 36 4653
628911.3283554856 1012505.4815189572 63.2 23 02 40 4653
628915.2366544894 1012506.6332478091 98.9 23 02 44 4653
628924.5686964843 1012509.2512750993 93.0 23 02 48 4653
628893.1619819083 1012526.2337461301 80.8 23 02 52 4653
628848.5648977327 1012618.5566561355 100.6 23 02 56 4653
628835.6630847974 1012686.2789504465 101.8 23 03 00 4653
628773.55178276 1012703.8470681659 98.7 23 03 08 4653
628771.8921801659 1012693.8119250888 103.9 23 03 12 4653
628761.0140808644 1012653.0493515303 114.1 23 03 16 4653
628702.3230228036 1012673.1610353896 105.0 23 03 20 4653
628692.0414230188 1012685.4463433896 111.7 23 03 24 4653
628690.3840177453 1012671.3528753525 115.1 23 03 28 4653
628686.7032800482 1012667.8133491208 113.4 23 03 32 4653
628687.2796987819 1012676.4074018504 115.0 23 03 36 4653
628700.4013604844 1012672.7345713831 113.8 23 03 40 4653
628694.8304278143 1012672.6058583886 114.3 23 03 44 4653
628694.2773197676 1012673.7319888223 101.6 23 03 48 4653
628689.719163381 1012676.4263991202 89.5 23 03 52 4653
628692.3249107861 1012679.3763455759 108.0 23 03 56 4653
628693.7541788407 1012672.4033090688 107.3 23 04 00 4653
628691.3424020915 1012677.3826822436 101.6 23 04 08 4653
628694.9375389942 1012612.6821313719 100.9 23 04 36 4653
628668.6300214467 1012589.0869157056 99.4 23 04 40 4653
628650.3922215331 1012571.047043242 121.0 23 04 44 4653
628683.1478092605 1012564.994230507 118.4 23 04 52 4653
628721.3041872961 1012422.2803765446 136.1 23 18 40 4653
628772.2515414872 1012424.8347743275 177.7 23 18 44 4653
628762.9492266206 1012433.3303184509 123.5 23 18 48 4653
628782.5881979733 1012459.7900505253 58.7 23 18 52 4653
628817.9159219544 1012504.1597992947 76.4 23 18 56 4653
628824.0775513044 1012521.9945435402 85.3 23 19 00 4653
628823.5320240757 1012503.9237548824 101.0 23 19 08 4653
628756.2938654979 1012560.3888448615 112.3 23 19 48 4653
628680.0491907499 1012548.032016577 108.9 23 19 52 4653
628660.2622266805 1012594.0800866872 112.7 23 19 56 4653
628687.15026446 1012614.8794757662 106.8 23 20 00 4653
628781.4096296332 1012649.6103367545 123.5 23 20 08 4653
628840.9107336482 1012576.5218137918 102.5 23 20 12 4653
628974.251208326 1012485.1627377026 97.3 23 20 20 4653
629004.0694025495 1012490.2914473002 92.9 23 20 24 4653
629044.0795776765 1012503.9129222457 102.3 23 20 28 4653
629022.879439096 1012521.5257425036 105.0 23 20 32 4653
629023.6446143172 1012522.7667520643 94.4 23 20 36 4653
629022.289052605 1012517.2332527144 122.3 23 20 40 4653
629035.3803905526 1012516.1480319537 131.6 23 21 00 4653
629022.4249506099 1012438.5217581806 102.5 23 21 24 4653
628994.6713309919 1012440.5322813097 101.1 23 21 28 4653
629008.6380824856 1012440.5888934118 87.7 23 21 32 4653
628954.9596703433 1012449.9238527863 113.7 23 21 36 4653
628907.4744328978 1012433.7015671062 112.7 23 21 40 4653
628900.5132163186 1012472.3934598366 116.2 23 21 44 4653
628850.2580982621 1012473.2470525063 98.3 23 21 48 4653
628802.2092292539 1012458.0072336101 97.3 23 21 52 4653
628755.844148277 1012472.375610584 112.9 23 21 56 4653
628727.4160597663 1012529.6969526063 114.1 23 22 00 4653
628650.461581029 1012593.6390505646 127.7 23 22 08 4653
628604.8805823784 1012633.9193491499 138.7 23 22 12 4653
628630.1471368045 1012646.4640533982 125.6 23 22 16 4653
628672.5987322275 1012683.1161513489 128.6 23 22 20 4653
628698.1968084876 1012684.9466442988 127.7 23 22 24 4653
628750.0208093228 1012678.0270803568 113.5 23 22 28 4653
628772.5350008733 1012692.133180348 123.1 23 22 32 4653
628825.6575271711 1012684.6539782551 128.6 23 22 36 4653
628867.7717679325 1012720.2325754031 121.2 23 22 40 4653
628917.8306795843 1012739.0176824325 118.4 23 22 44 4653
628948.0139510354 1012739.9675829771 110.3 23 22 48 4653
628967.7490904316 1012723.3783700058 98.7 23 22 52 4653
629013.7737394223 1012702.1531009442 114.3 23 22 56 4653
629044.1174928738 1012680.876702158 122.1 23 23 00 4653
629116.8809649603 1012591.4878592985 95.7 23 23 08 4653
629121.4876892677 1012526.8126778645 109.7 23 23 12 4653
629120.6840267691 1012527.2634384438 77.8 23 23 16 4653
629123.2111253814 1012527.3712126482 119.6 23 23 20 4653
629121.0572848673 1012527.3752386684 110.0 23 23 24 4653
629131.2398553445 1012518.5509006191 117.8 24 00 00 4653
629055.1852503124 1012589.3623514425 117.8 24 00 32 4653
628954.6196379326 1012688.999984724 109.1 24 00 40 4653
628964.3209054789 1012730.0131384884 118.8 24 00 44 4653
628922.0700868793 1012712.7573372449 97.1 24 00 56 4653
628902.9770597592 1012673.9583880048 108.1 24 01 00 4653
628857.2697835751 1012537.0975257744 97.1 24 01 08 4653
628844.4527868411 1012531.5598673342 103.2 24 01 12 4653
628845.4304311482 1012545.1645740016 112.0 24 01 16 4653
628848.2687050906 1012523.9642939011 89.7 24 01 20 4653
628841.96359086 1012526.5645333085 48.1 24 02 00 4653
628835.8260388871 1012511.4612258726 104.4 24 02 28 4653
628800.3106191719 1012507.8622294407 34.4 24 02 32 4653
628814.046501597 1012507.9401403302 51.5 24 02 36 4653
628795.7282568702 1012507.8583643335 76.6 24 02 40 4653
628860.2681398831 1012517.3574428457 111.9 24 03 00 4653
628817.818620795 1012517.1638626055 83.3 24 03 40 4653
628847.9913548057 1012521.3979000489 112.5 24 03 44 4653
628846.2275267428 1012516.3717545918 110.2 24 03 48 4653
628728.4918049473 1012506.4230625392 93.9 24 04 00 4653
628682.6929862213 1012583.1944521576 103.1 24 04 08 4653
628723.7727282936 1012521.413602808 101.8 24 04 12 4653
628728.1043178267 1012541.0669642338 113.2 24 04 16 4653
628723.0672412021 1012508.5838606181 96.0 24 04 20 4653
628704.7595460091 1012505.26212534 121.0 24 04 24 4653
628724.7545786102 1012530.3628364193 101.0 24 04 28 4653
628710.6940853224 1012434.1886413785 -33.1 24 04 32 4653
628749.5925525739 1012455.1598455701 99.6 24 04 36 4653
628696.3621226569 1012468.6986974835 55.3 24 04 40 4653
628700.3900490787 1012534.3971689151 131.5 24 04 44 4653
628669.7673180394 1012584.0370454245 77.4 24 04 48 4653
628684.4961558832 1012647.0500329486 90.6 24 04 52 4653
628699.744051403 1012672.1131760023 133.2 24 04 56 4653
628693.147625976 1012659.5628311791 112.7 24 05 00 4653
628694.8782576662 1012668.0390010319 111.0 24 05 08 4653
628706.916273352 1012659.6850508797 171.0 24 05 12 4653
628650.5813790606 1012661.5253683487 107.6 24 05 16 4653
628620.697845025 1012598.8169664006 102.6 24 05 20 4653
628550.0934325332 1012626.1332096639 103.0 24 05 24 4653
628539.5669691913 1012612.3426692758 87.8 24 05 28 4653
628606.436777391 1012581.1549691786 117.7 24 05 32 4653
628642.0144635977 1012565.590243099 104.7 24 05 36 4653
628657.8418583852 1012557.7904513897 67.2 24 05 40 4653
628727.8296735864 1012345.2153026552 75.8 24 18 44 4653
628683.042478379 1012276.4980450474 75.8 24 18 48 4653
628637.6258859737 1012232.3168229614 87.2 24 18 52 4653
628591.4847463719 1012177.7386637407 71.0 24 18 56 4653
628586.5965552625 1012082.4790505151 57.6 24 19 00 4653
628540.0612335168 1012064.5905940442 77.9 24 19 08 4653
628535.3123771143 1012061.7000519247 92.8 24 19 28 4653
628552.5523359278 1012025.0541134077 75.0 24 19 32 4653
628598.1793453015 1012004.6010700332 133.1 24 19 36 4653
628554.2390476483 1012009.865717043 69.7 24 19 40 4653
628575.9774355391 1012009.2286278888 89.1 24 19 52 4653
628630.9062452787 1011966.9439082332 53.8 24 19 56 4653
628650.9513374829 1011942.9576248756 73.8 24 20 00 4653
628688.942513684 1011905.1738577876 57.6 24 20 08 4653
628719.5326802051 1011855.5448944529 66.9 24 20 16 4653
628743.7046282953 1011826.3858002543 54.3 24 20 20 4653
628777.3930340044 1011820.9110441116 52.6 24 20 24 4653
628778.9378165496 1011842.6121438226 58.5 24 20 28 4653
628784.6061131846 1011843.2498448724 67.6 24 20 32 4653
628773.6117475565 1011855.0020474339 61.5 24 20 36 4653
628773.7955086106 1011849.1860631255 66.9 24 20 40 4653
628748.932503504 1011908.3546854008 68.8 24 20 44 4653
628778.3556906488 1011997.8555010842 69.5 24 20 48 4653
628799.955451012 1012039.814049428 81.7 24 20 52 4653
628889.96689823 1012019.5058295525 65.8 24 20 56 4653
628938.4714048519 1012070.4428743398 72.6 24 21 00 4653
628956.1647964753 1012063.3790894181 72.6 24 21 08 4653
628992.1598918934 1012044.6865080401 60.7 24 21 12 4653
629075.7846221093 1012038.534431304 60.9 24 21 16 4653
629163.3264192196 1012098.2024034178 68.2 24 21 28 4653
629118.0514841866 1012128.5419600366 73.0 24 21 32 4653
629151.3408237714 1012251.9932946094 87.0 24 21 40 4653
629161.574014578 1012284.9026072655 93.3 24 21 45 4653
629135.1861450765 1012296.0183689608 86.6 24 21 48 4653
629060.7104125484 1012344.2210864502 94.0 24 21 52 4653
629074.4495404572 1012414.0428746379 99.6 24 21 56 4653
629095.4320584415 1012436.1944911436 90.9 24 22 00 4653
