627811.6474808875 1013460.6065215436 85.6 27 21 52 4658
627814.4586815238 1013464.5854789311 68.2 27 22 00 4658
627798.462338669 1013480.6232929175 87.4 27 22 12 4658
627805.589323869 1013482.0507269022 87.6 27 22 16 4658
627777.8183534367 1013486.306743584 60.0 27 22 20 4658
627795.9812735171 1013483.2913316954 49.9 27 22 24 4658
627793.0411162314 1013481.8110925438 95.7 27 22 28 4658
627795.4345790653 1013472.2535645608 88.6 27 22 32 4658
627783.1600968237 1013465.523705836 84.2 27 22 36 4658
627792.16647608 1013453.2562109047 70.3 27 22 40 4658
627796.8079293948 1013489.3096201862 68.3 27 22 44 4658
627755.1179088546 1013489.0863288735 81.4 27 22 48 4658
627745.4344813583 1013489.8512029264 98.3 27 22 52 4658
627743.8202839786 1013499.6987628279 105.5 27 22 56 4658
627742.4262363019 1013495.8349740204 87.3 27 23 00 4658
627774.5624004959 1013487.3356765279 70.5 27 23 08 4658
627774.6535886377 1013482.9237837923 66.2 27 23 12 4658
627754.489550075 1013496.5042913756 81.9 27 23 16 4658
627753.7269498325 1013467.2752312475 70.2 27 23 20 4658
627749.8219555396 1013427.7409082392 92.9 27 23 24 4658
627724.8642769535 1013418.3271772212 93.5 27 23 28 4658
627711.6539256637 1013405.3575444119 90.7 27 23 32 4658
627682.6338221781 1013405.097886904 102.5 27 23 36 4658
627632.0487855586 1013423.4789080455 101.7 27 23 40 4658
627613.2169681996 1013432.8617070938 115.1 27 23 44 4658
627604.5343549486 1013429.9585575616 108.2 27 23 48 4658
627604.7184452546 1013430.7995682865 106.7 27 23 52 4658
627588.9472182038 1013414.5816853048 89.2 27 23 56 4658
627566.6383480472 1013401.5827287285 66.2 28 00 00 4658
627551.426222306 1013447.0377265511 98.2 28 00 08 4658
627529.3893802341 1013448.492611845 74.9 28 00 12 4658
627485.8498645187 1013425.4839469498 61.9 28 00 16 4658
627495.1870467378 1013433.2658051662 102.2 28 00 20 4658
627506.690833 1013409.8265708325 93.1 28 00 24 4658
627513.7340200397 1013423.6055816518 100.7 28 00 28 4658
627513.3514184179 1013426.3909893102 104.7 28 00 32 4658
627514.4204396218 1013428.8272222811 101.5 28 00 36 4658
627512.2563519137 1013425.2152962649 89.5 28 00 40 4658
627511.4638601138 1013425.621888661 92.9 28 00 44 4658
627512.2572413401 1013428.3447427505 98.2 28 00 48 4658
627511.5993949712 1013427.8892374964 81.4 28 00 52 4658
627511.1288168536 1013427.2905812322 91.1 28 00 56 4658
627513.5281621271 1013426.1040489713 102.6 28 01 00 4658
627499.9659223754 1013454.059403606 108.9 28 01 08 4658
627540.1441072999 1013473.286424773 84.6 28 01 16 4658
627538.4285589873 1013466.8893018478 88.3 28 01 20 4658
627535.1404687847 1013467.6638137368 86.1 28 01 24 4658
627555.4933211221 1013463.6490738203 82.5 28 01 29 4658
627558.8261372473 1013469.4432232089 67.7 28 01 32 4658
627564.354462721 1013479.3249028358 96.1 28 01 40 4658
627559.0288630961 1013481.5303882115 117.2 28 01 44 4658
627576.5124248695 1013494.9229152758 87.5 28 01 48 4658
627574.8323484539 1013487.7518368586 80.8 28 01 52 4658
627574.6208180742 1013488.6026280994 87.0 28 01 56 4658
627604.0174375509 1013504.9529777368 103.3 28 02 00 4658
627621.2280589842 1013487.1718372747 98.0 28 02 08 4658
627620.9506578982 1013481.1995624572 114.7 28 02 12 4658
627636.1926869411 1013470.7325362548 84.1 28 02 17 4658
627657.393538375 1013486.5477785256 107.7 28 02 20 4658
627719.2054760023 1013506.6079119684 68.9 28 02 28 4658
627735.952532735 1013499.6733252705 75.0 28 02 36 4658
627792.5805022179 1013484.9279911561 93.8 28 02 40 4658
627797.5358761891 1013468.0914517774 89.1 28 02 44 4658
627819.8598308695 1013445.8262708798 84.7 28 02 48 4658
627822.4499802785 1013453.5974474307 74.0 28 02 52 4658
627814.3175436453 1013443.674125715 69.5 28 02 56 4658
627804.142803124 1013443.4532253724 68.9 28 03 00 4658
627797.7378408764 1013446.4181995384 82.8 28 03 08 4658
627810.8909918737 1013460.0732848909 127.7 28 03 12 4658
627809.9896780297 1013456.7529346738 71.3 28 03 16 4658
627803.4019189302 1013458.4788075044 67.6 28 03 36 4658
627810.0894399874 1013459.8827040673 66.4 28 03 40 4658
627814.1610064273 1013454.6985605869 56.6 28 03 44 4658
627802.9334603754 1013443.6373016261 48.2 28 03 48 4658
627819.9728406394 1013451.654263491 61.2 28 03 52 4658
627801.6326284813 1013458.5173170305 38.8 28 03 56 4658
627762.8934483678 1013463.2576014826 60.4 28 04 00 4658
627731.1040126947 1013493.6641529156 74.6 28 04 08 4658
627733.7582820357 1013501.9994930682 39.7 28 04 12 4658
627740.1612431096 1013523.4397597781 72.6 28 04 16 4658
627724.5833592522 1013508.6268155014 40.3 28 04 20 4658
627750.1508429672 1013557.121899996 98.4 28 04 24 4658
627724.6364848977 1013546.5784304518 59.1 28 04 28 4658
627710.3906143751 1013541.2244834743 61.6 28 04 32 4658
627685.0354524078 1013539.2184188829 64.0 28 04 36 4658
627681.4684177986 1013537.9020336703 67.2 28 04 40 4658
627677.5827706887 1013539.96840118 62.2 28 04 44 4658
627668.590756917 1013537.6060813522 66.1 28 04 48 4658
627666.4400548084 1013536.6591920836 60.4 28 04 52 4658
627668.3385214913 1013530.6497145449 54.0 28 04 56 4658
627657.8456091284 1013537.0848034266 44.3 28 05 00 4658
627672.7756116304 1013538.1614522085 76.3 28 05 08 4658
627658.9871232997 1013537.4865838682 66.6 28 05 12 4658
627637.8475825174 1013516.3083516372 79.8 28 05 16 4658
627626.0278131705 1013532.0943226579 82.7 28 05 20 4658
627581.4162137534 1013531.463679313 85.3 28 05 24 4658
627566.3973130335 1013540.9030385845 71.0 28 05 28 4658
627539.7976684322 1013543.1614788607 80.7 28 05 32 4658
627535.0900502657 1013537.7499261359 75.0 28 05 36 4658
627546.629713421 1013622.3264048441 38.8 28 05 52 4658
627533.4636026839 1013656.9289462763 120.2 28 19 08 4658
627524.0599519862 1013666.3532693505 105.1 28 19 12 4658
627506.5846130518 1013664.0520634924 104.8 28 19 16 4658
627490.8093276747 1013672.9471547748 90.5 28 19 20 4658
627471.1677472644 1013654.0849907472 76.9 28 19 24 4658
627473.9425037969 1013706.8189877744 88.1 28 19 28 4658
627449.10347849 1013735.6004895382 60.3 28 19 32 4658
627461.2117979364 1013752.9454931763 89.3 28 19 36 4658
627467.9782584328 1013757.1141178589 83.8 28 19 40 4658
627540.3633716392 1013745.7367649849 104.6 28 19 44 4658
627608.9108518957 1013731.7927180338 98.3 28 19 48 4658
627656.4048436289 1013683.699639735 93.7 28 19 52 4658
627643.7377977011 1013631.8404000767 62.9 28 19 56 4658
627691.9201354483 1013561.2131380693 96.3 28 20 00 4658
627663.9929819328 1013522.0103461677 64.3 28 20 08 4658
627748.3444386943 1013483.6791262398 87.3 28 20 12 4658
627806.3864827965 1013470.0110177781 57.9 28 20 16 4658
627815.2497390825 1013461.2263707677 70.8 28 20 20 4658
627820.1621491589 1013450.8808077996 108.1 28 20 24 4658
627807.3262847755 1013461.4329602121 61.0 28 20 28 4658
627822.038147263 1013455.2216581574 81.5 28 20 32 4658
627817.0097158783 1013457.2732587598 59.5 28 20 48 4658
627813.9583553413 1013459.5966502602 63.1 28 20 52 4658
627809.0782981415 1013466.7354648528 82.3 28 20 56 4658
627847.4946767951 1013470.0666061911 75.1 28 21 00 4658
627801.3960119354 1013463.724923938 77.2 28 21 08 4658
627796.7630532432 1013462.4161390659 81.2 28 21 12 4658
627797.8592118523 1013459.8542018651 69.8 28 21 16 4658
627808.4354714968 1013458.2407527769 80.9 28 21 20 4658
627814.8285991898 1013462.3308199828 95.4 28 21 24 4658
627807.4796586632 1013461.5772118353 82.3 28 21 28 4658
627846.5956644247 1013442.2635915834 63.8 28 21 32 4658
627808.6346021012 1013464.6219295356 60.2 28 21 56 4658
627809.0822329877 1013448.5338195384 72.8 28 22 00 4658
627814.1101572546 1013443.2421883463 61.5 28 22 08 4658
627782.6356558475 1013427.2167012937 92.2 28 22 12 4658
627786.9766953357 1013430.4486517243 90.4 28 22 20 4658
627816.7576513248 1013416.3021249888 87.2 28 22 36 4658
627813.1251133878 1013418.2476609836 89.1 28 22 40 4658
627806.1240846659 1013422.0400648832 85.6 28 22 44 4658
627793.6820496394 1013392.3640750744 66.4 28 22 48 4658
627800.8149422985 1013402.1625180999 64.6 28 22 52 4658
627806.4803028094 1013424.0206197111 54.3 28 22 56 4658
627829.0400915305 1013444.3520662158 72.5 28 23 00 4658
627804.9711253059 1013442.1621051787 58.8 28 23 08 4658
627823.9634532364 1013451.1142675767 69.9 28 23 12 4658
627798.7452300672 1013457.7117933551 46.4 28 23 16 4658
627777.0816182374 1013459.2783293659 -5.1 28 23 20 4658
627799.8362779294 1013443.1407266775 43.3 28 23 56 4658
627801.0350613737 1013442.8239187937 57.7 29 00 00 4658
627767.9228530457 1013488.0882729169 72.0 29 00 08 4658
627775.4371066226 1013485.2927541531 73.1 29 00 12 4658
627776.6242205815 1013485.1860121469 77.7 29 00 16 4658
627744.5794429628 1013506.2033880581 75.5 29 00 20 4658
627724.803169965 1013518.8120479456 52.8 29 00 24 4658
627737.8196954349 1013513.5462358547 75.9 29 00 28 4658
627716.6409390256 1013473.9118417891 81.3 29 00 32 4658
627692.4120248107 1013477.0182660503 84.9 29 00 36 4658
627648.9733625093 1013446.6339718029 102.0 29 00 40 4658
627546.9783696271 1013412.2124508386 85.7 29 00 52 4658
627575.26939093 1013400.0403433192 107.3 29 00 56 4658
627560.4392497475 1013408.8610659207 106.9 29 01 00 4658
627519.0814470252 1013394.2082803427 108.9 29 01 24 4658
627518.6584210242 1013399.3047014199 104.1 29 01 28 4658
627507.1779200265 1013425.740754894 108.1 29 01 32 4658
627510.7655873625 1013430.8832930463 99.7 29 01 36 4658
627521.7801628377 1013426.2412615423 115.9 29 01 40 4658
627521.255031448 1013428.9266862532 93.2 29 01 44 4658
627505.0487932006 1013424.9155845047 73.5 29 01 48 4658
627511.8233783636 1013423.1792077511 99.2 29 01 52 4658
627512.3402657512 1013423.0481785582 91.6 29 01 56 4658
627505.5372846612 1013419.9631300856 92.9 29 02 00 4658
627458.4000156671 1013439.2069606053 97.4 29 02 08 4658
627465.4081027796 1013443.4316472398 110.0 29 02 12 4658
627436.22490144 1013446.057805683 91.9 29 02 16 4658
627437.3848266948 1013444.1595532331 107.3 29 02 20 4658
627400.7845962533 1013453.5183155445 124.9 29 02 24 4658
627413.5566449892 1013459.309712625 127.4 29 02 28 4658
627410.3052203748 1013452.1225200598 100.3 29 02 32 4658
627411.3679707685 1013456.5049551426 121.4 29 02 36 4658
627401.0982834041 1013461.8792512406 127.1 29 02 40 4658
627398.0853210757 1013472.7507073958 93.2 29 02 44 4658
627400.617213152 1013519.0591403894 197.5 29 02 48 4658
627386.1232816506 1013532.6912761839 119.7 29 02 52 4658
627411.4852063918 1013553.0425591193 71.5 29 02 56 4658
627376.2895162267 1013586.9106116338 66.2 29 03 00 4658
627367.8334660304 1013595.5418409581 45.5 29 03 08 4658
627390.4767071472 1013590.0194508939 96.8 29 03 12 4658
627391.816274557 1013597.1562458 76.6 29 03 16 4658
627391.0923683754 1013603.5565521092 78.1 29 03 20 4658
627395.4627964016 1013597.6766773908 61.4 29 03 24 4658
627395.5229091812 1013596.0734465318 66.6 29 03 28 4658
627402.5675338729 1013595.7754792961 76.5 29 03 32 4658
627396.8379204471 1013597.1945553725 96.3 29 03 36 4658
627397.5307984066 1013597.00880203 96.4 29 03 40 4658
627391.2480077535 1013592.7754052419 65.5 29 03 44 4658
627394.0650481108 1013594.9518770974 93.2 29 03 48 4658
627392.9412318363 1013595.8771336545 73.8 29 03 52 4658
627408.437784171 1013622.3006812007 58.8 29 03 56 4658
627409.0403484897 1013639.8960650148 74.1 29 04 00 4658
627419.716506036 1013648.1687858648 71.6 29 04 08 4658
627421.9483744983 1013654.6118006264 74.5 29 04 12 4658
627423.6912894917 1013655.9333368377 67.9 29 04 16 4658
627409.4174398207 1013662.6659137149 62.6 29 04 20 4658
627420.5122105413 1013656.9846602349 73.4 29 04 24 4658
627408.3814893719 1013656.7907201797 74.5 29 04 28 4658
627401.2403289864 1013652.9526435352 44.2 29 04 32 4658
627395.5956587835 1013672.3303500469 77.5 29 04 36 4658
627407.4107525722 1013681.8010166252 89.1 29 04 40 4658
627396.968885794 1013669.0284062459 64.9 29 04 44 4658
627397.0755247369 1013670.0350374302 63.6 29 04 48 4658
627385.2936618724 1013674.1106562107 72.4 29 04 52 4658
627396.02244598 1013662.6558873199 72.3 29 04 56 4658
627396.1616982231 1013667.1791000545 67.1 29 05 00 4658
627401.2593415269 1013650.464631915 53.1 29 05 08 4658
627396.4047609832 1013639.5125132817 56.6 29 05 12 4658
627406.1398231213 1013632.9422222016 98.8 29 05 16 4658
627413.9785823078 1013645.3525785882 81.7 29 05 20 4658
627418.3925856088 1013615.7421591891 79.5 29 05 24 4658
627415.1643714922 1013611.5849587609 88.5 29 05 28 4658
627403.3606460734 1013608.8044808742 29.8 29 05 32 4658
627420.8056276828 1013627.3388336367 67.8 29 05 36 4658
627423.3518026323 1013624.9142637888 71.7 29 05 40 4658
627437.1650812664 1013617.892693604 136.8 29 05 44 4658
627426.0879250485 1013628.3289849781 85.0 29 05 48 4658
627425.5246564747 1013622.400025066 98.2 29 05 52 4658
627408.1271122824 1013623.228559808 15.4 29 05 56 4658
627431.2306481516 1013618.0836543255 83.2 29 06 00 4658
627510.4417809036 1013575.4780292249 105.9 29 19 08 4658
627515.0180041834 1013577.3395032577 98.3 29 19 12 4658
627533.8033048011 1013572.1254244237 100.7 29 19 16 4658
627595.7378779695 1013547.3783152981 75.0 29 19 20 4658
627617.7557643071 1013517.7584087619 71.8 29 19 24 4658
627692.1308685427 1013513.0115102391 73.2 29 19 28 4658
627745.218407261 1013502.3019399745 72.7 29 19 32 4658
627792.3213505776 1013466.5264496601 52.9 29 19 36 4658
627817.7564095608 1013464.2312291171 67.7 29 19 40 4658
627818.5566418953 1013447.8456902769 56.6 29 19 44 4658
627809.6270935064 1013456.7407036802 68.9 29 19 48 4658
627804.7981860724 1013448.0665793237 60.3 29 19 52 4658
627795.7756652989 1013448.335965058 66.1 29 19 56 4658
627797.96996661 1013449.39358327 60.5 29 20 00 4658
627813.9875581361 1013457.3630053691 58.3 29 20 08 4658
627818.731904519 1013458.2077117288 61.6 29 20 12 4658
627807.4534463771 1013456.0923018047 48.1 29 20 16 4658
627804.9746117536 1013464.8644271393 47.7 29 20 20 4658
627813.0413755688 1013444.134438383 55.6 29 20 28 4658
627810.1581326623 1013445.4410274728 61.7 29 20 32 4658
627820.6823646164 1013449.7213885457 46.2 29 20 36 4658
627798.6619944714 1013435.8828050761 48.2 29 20 40 4658
627807.1595664388 1013431.4428121629 79.4 29 20 44 4658
627800.6084252701 1013435.4357179869 48.1 29 20 48 4658
627816.6238296005 1013403.3194645516 85.8 29 21 04 4658
627801.166222815 1013419.2594999211 46.9 29 21 08 4658
627810.1934445365 1013437.9216232209 69.7 29 21 12 4658
627817.2698496073 1013451.5902287952 96.7 29 21 16 4658
627818.6246182942 1013450.6104391163 73.6 29 21 20 4658
627815.6676689173 1013447.5267174199 76.5 29 21 24 4658
627799.6502407013 1013449.6975871731 79.8 29 21 28 4658
627804.6402413436 1013452.7325930716 83.3 29 21 32 4658
627802.1426136328 1013460.5204854717 67.6 29 21 36 4658
627777.1172981064 1013482.2240321005 60.8 29 21 40 4658
627745.0598611583 1013507.155939144 96.4 29 21 44 4658
627710.6353428089 1013502.9089154846 80.7 29 21 48 4658
627688.2897040554 1013528.5136262787 98.1 29 21 52 4658
627692.045138141 1013519.1374269809 78.9 29 21 56 4658
627649.4340615555 1013548.9229772955 82.6 29 22 00 4658
627677.3492504059 1013595.2250289427 58.5 29 22 08 4658
627687.2266289366 1013605.8395656557 42.1 29 22 12 4658
627723.2598535048 1013622.2999384134 72.0 29 22 24 4658
627719.8125099273 1013590.7621124614 125.8 29 22 28 4658
627716.3696735058 1013632.605939866 84.2 29 22 32 4658
627716.3451056301 1013619.8116236049 88.6 29 22 36 4658
627723.5808799512 1013631.766721354 71.3 29 22 40 4658
627751.1173135135 1013645.6341711292 91.7 29 22 44 4658
627753.5849397636 1013653.913620944 91.2 29 22 48 4658
627752.4121970616 1013646.1802062839 87.9 29 22 52 4658
627755.430334363 1013647.3289526601 87.9 29 22 56 4658
627754.7966360593 1013652.9997160624 83.2 29 23 00 4658
627760.640946908 1013653.4941160313 44.9 29 23 08 4658
627757.0613985392 1013652.653180737 45.3 29 23 12 4658
627751.1328930135 1013661.2040467004 57.6 29 23 16 4658
627754.571352811 1013664.8975188407 50.1 29 23 20 4658
627783.0903106211 1013663.7623100211 98.5 29 23 24 4658
627780.296679775 1013684.9295648319 65.5 29 23 28 4658
627770.8576510383 1013667.9027096705 69.8 29 23 32 4658
627753.413383116 1013666.1875733378 71.6 29 23 36 4658
627755.3420825102 1013678.0149354996 85.4 29 23 40 4658
627738.1387744064 1013686.7394444827 100.6 29 23 44 4658
627739.172984408 1013689.7395377872 99.8 29 23 48 4658
627706.5709589182 1013696.235818275 77.1 29 23 52 4658
627704.2560789583 1013684.8937686486 75.6 29 23 56 4658
627689.4055129385 1013706.8514058078 82.5 30 00 00 4658
627624.5956684329 1013723.6935648664 76.1 30 00 08 4658
627641.107627498 1013728.2696850224 106.4 30 00 12 4658
627652.3846151633 1013730.816318186 117.8 30 00 16 4658
627636.4321211097 1013729.9354097856 104.8 30 00 20 4658
627630.1160711113 1013729.2072823471 88.2 30 00 24 4658
627643.5565591184 1013718.5354027281 82.5 30 00 28 4658
627632.1487705002 1013739.4647188642 87.9 30 00 32 4658
627633.8580291197 1013734.1955230194 118.5 30 00 36 4658
627633.0941285123 1013732.556454313 120.8 30 00 40 4658
627629.3520825412 1013730.9962277332 116.6 30 00 44 4658
627626.3074868695 1013727.8348289996 104.1 30 00 48 4658
627597.4641123358 1013720.5649333881 115.8 30 00 52 4658
627584.534724687 1013736.303091745 112.1 30 00 56 4658
627573.301841029 1013709.8932226045 111.8 30 01 00 4658
627523.2981127377 1013684.4971626437 101.5 30 01 08 4658
627541.1416502735 1013661.244280559 117.4 30 01 12 4658
627531.1308429174 1013657.9166447942 116.4 30 01 16 4658
627522.4850374189 1013667.4539958468 102.7 30 01 20 4658
627517.3517112926 1013657.7615819704 95.8 30 01 24 4658
627519.201301051 1013656.6728000188 100.1 30 01 28 4658
627514.5980967556 1013666.5770619675 104.8 30 01 32 4658
627512.929819336 1013665.9634810024 92.4 30 01 36 4658
627514.6540326877 1013669.6735122332 96.7 30 01 40 4658
627513.6207281634 1013669.7918159135 90.7 30 01 44 4658
627507.4579405347 1013665.8352374393 83.8 30 01 48 4658
627485.2300997148 1013672.0334422557 78.7 30 01 52 4658
627451.7818781842 1013671.7596388763 65.6 30 01 56 4658
627435.5825959175 1013689.4666906411 75.1 30 02 00 4658
627417.3602521813 1013714.3549884562 95.0 30 02 12 4658
627399.4674576261 1013722.2480516783 83.1 30 02 16 4658
627397.6545413049 1013715.3751231541 52.2 30 02 20 4658
627390.3992726355 1013719.6643840218 57.5 30 02 24 4658
627377.9977612272 1013748.9283601394 68.8 30 02 32 4658
627370.3371483536 1013756.2462363376 61.6 30 02 36 4658
627367.6349832963 1013745.7102105358 58.1 30 02 40 4658
627361.6784000222 1013756.1851418015 68.4 30 02 44 4658
627360.3627163448 1013755.2741352434 55.8 30 02 48 4658
627364.0602850126 1013722.9189957981 64.6 30 02 52 4658
627354.9536494361 1013677.728351141 60.0 30 02 56 4658
627345.1582739284 1013668.9276989374 61.5 30 03 00 4658
627345.2154970171 1013654.5855277143 29.3 30 03 08 4658
627341.4112758815 1013662.081714187 72.4 30 03 12 4658
627336.4719722369 1013646.7282080317 52.1 30 03 16 4658
627331.0585933585 1013631.859731421 95.5 30 03 20 4658
627309.1100552983 1013619.5919098037 54.4 30 03 24 4658
627300.7977904661 1013624.530209413 85.7 30 03 28 4658
627300.9503723577 1013604.460252962 54.4 30 03 32 4658
627304.9833643173 1013600.9899480357 92.1 30 03 36 4658
627272.1604736727 1013577.142456854 29.0 30 03 40 4658
627336.3948322672 1013585.432914279 78.3 30 03 44 4658
627353.7481932909 1013588.0875050805 75.9 30 03 48 4658
627377.9397932546 1013593.1084689569 76.3 30 03 52 4658
627376.023825447 1013584.1120555195 97.0 30 03 56 4658
627373.0083646543 1013588.9457812089 99.8 30 04 00 4658
627386.6061726159 1013590.8142115633 79.1 30 04 08 4658
627402.6238418468 1013629.4254645732 55.9 30 04 13 4658
627414.2989027741 1013624.3985078563 73.9 30 04 16 4658
627399.5214328861 1013606.7021184674 77.2 30 04 20 4658
627400.5530216983 1013603.7086996782 87.9 30 04 24 4658
627399.4523591485 1013604.2691133574 94.9 30 04 28 4658
627402.3564971032 1013589.6596685085 79.8 30 04 32 4658
627400.4894753982 1013599.5617066358 86.2 30 04 36 4658
627400.6330739916 1013599.32994959 82.3 30 04 40 4658
627402.5541156403 1013593.1214916236 99.0 30 04 44 4658
627406.374852617 1013597.5459959575 86.9 30 04 48 4658
627415.8056846297 1013600.1308333016 85.1 30 04 52 4658
627435.0576271295 1013569.4735211335 87.1 30 04 56 4658
627429.6458116209 1013564.347221511 86.0 30 05 00 4658
627444.2543514394 1013566.2852796853 99.7 30 05 08 4658
627439.0541147104 1013529.6330104255 108.5 30 05 12 4658
627424.6876250753 1013493.5262015105 114.5 30 05 16 4658
627415.3704769639 1013448.8656560677 124.2 30 05 20 4658
627419.8899425823 1013441.0732109258 131.7 30 05 24 4658
627425.5175491254 1013444.0328145777 126.7 30 05 28 4658
627434.3933702895 1013458.5807280878 113.6 30 05 32 4658
627433.0105519926 1013475.0749563767 125.0 30 05 36 4658
627435.0534386323 1013468.5683231867 129.6 30 05 40 4658
627441.3830429635 1013502.5813456511 115.0 30 05 44 4658
627452.2461792576 1013503.9986501238 104.1 30 05 48 4658
627463.9259579459 1013504.3348981779 113.1 30 05 52 4658
627468.9503992557 1013534.163755575 102.6 30 05 56 4658
627477.29937741 1013548.5109383164 114.6 30 06 00 4658
627488.905237286 1013578.5600839694 101.3 30 18 53 4658
627506.5298212253 1013575.4875194596 105.9 30 18 56 4658
627527.0789902111 1013565.1039367364 100.1 30 19 00 4658
627630.8129691085 1013540.7129899514 73.4 30 19 08 4658
627630.6215427059 1013545.5447654151 76.4 30 19 12 4658
627708.5850726836 1013501.4868498697 70.1 30 19 16 4658
627815.5326166135 1013445.1156113346 71.5 30 19 24 4658
627817.5001429755 1013451.7347292862 62.7 30 19 28 4658
627797.3269319918 1013474.9357492035 52.7 30 19 36 4658
627799.0919736301 1013391.2757605043 70.9 30 20 04 4658
627803.6383326934 1013368.400167316 72.2 30 20 08 4658
627793.3482971841 1013373.2435157471 75.2 30 20 12 4658
627791.4055923715 1013375.9354128262 85.0 30 20 16 4658
627807.6867844865 1013363.5698072265 78.9 30 20 20 4658
627789.6923330954 1013382.4320433277 67.3 30 20 24 4658
627797.7356123013 1013385.9524205119 68.7 30 20 28 4658
627786.093695042 1013373.894599381 71.8 30 20 40 4658
627791.8456789383 1013379.1658054893 82.2 30 20 44 4658
627783.5428368391 1013367.5611089976 42.5 30 20 48 4658
627812.7246054984 1013362.0158496184 105.1 30 20 52 4658
627789.4663014194 1013370.7760598673 71.5 30 20 56 4658
627798.1533273334 1013362.123534552 82.3 30 21 00 4658
627800.1497058254 1013380.2100086827 75.0 30 21 12 4658
627789.6871543562 1013373.8398717577 70.3 30 21 16 4658
627790.5599415749 1013375.7889224769 84.9 30 21 20 4658
627802.6586822864 1013372.3115714329 74.9 30 21 24 4658
627820.553640125 1013370.6222712209 118.3 30 21 28 4658
627804.7766847797 1013376.5757959922 78.8 30 21 32 4658
627800.5086342978 1013377.9553141587 73.4 30 22 00 4658
627797.4037035154 1013373.0575854199 75.2 30 22 08 4658
627797.6168933213 1013375.0929679979 74.6 30 22 12 4658
627790.6291557536 1013384.9673812364 71.6 30 22 16 4658
627791.7375366149 1013375.22876703 65.9 30 22 20 4658
627779.9446737955 1013386.0607561213 63.3 30 22 24 4658
627787.6787529947 1013383.2548899873 83.7 30 22 28 4658
627816.3654464877 1013357.5048571217 101.4 30 22 40 4658
627809.41724792 1013365.3447026939 93.7 30 22 44 4658
627795.6184046956 1013371.2493388085 84.1 30 22 48 4658
627792.2756067512 1013371.9462472084 94.6 30 22 52 4658
627802.9647870954 1013372.7991185234 91.1 30 22 56 4658
627798.1215604023 1013382.1386192071 65.2 30 23 00 4658
627824.7721362904 1013435.5138821751 55.6 30 23 08 4658
627805.6274964153 1013456.6614174248 71.5 30 23 12 4658
627771.3410688782 1013467.4648858098 68.1 30 23 16 4658
627745.9619878166 1013486.4359514606 54.4 30 23 20 4658
627731.8353509412 1013461.1888399781 37.6 30 23 24 4658
627697.3824676906 1013469.1056642017 65.7 30 23 40 4658
627650.8783239007 1013472.6266841713 85.1 30 23 44 4658
627635.7304755859 1013457.3396727828 87.3 30 23 48 4658
627603.3083362615 1013435.3067224071 110.7 30 23 52 4658
627606.2125838427 1013434.2987557751 110.2 30 23 56 4658
627604.4572569318 1013430.0135991141 99.9 31 00 00 4658
627603.7291719307 1013403.67083484 109.2 31 00 08 4658
627568.740129337 1013393.8598978124 103.3 31 00 12 4658
627567.8395503946 1013386.9014413859 104.0 31 00 16 4658
627566.7740005786 1013379.9866848824 96.2 31 00 20 4658
627585.0189078297 1013354.9879201995 103.3 31 00 24 4658
627555.4316345789 1013346.598821913 110.5 31 00 28 4658
627513.778161149 1013362.2553602743 113.5 31 00 32 4658
627516.023347592 1013364.5737493252 104.5 31 00 36 4658
627494.4158713599 1013369.1705467941 110.6 31 00 40 4658
627466.2188579182 1013359.0167055535 113.5 31 00 44 4658
627446.0977215917 1013359.3167220448 105.6 31 00 48 4658
627444.5094917836 1013361.1361864378 100.1 31 00 52 4658
627441.647047103 1013383.2542162583 120.0 31 00 56 4658
627436.9984117493 1013383.3940370901 112.6 31 01 00 4658
627434.9598104185 1013395.3855027598 110.5 31 01 08 4658
627439.9330252833 1013420.6693050966 107.7 31 01 12 4658
627469.2139018159 1013449.0835576274 100.3 31 01 16 4658
627477.2856209872 1013467.6319223468 94.9 31 01 20 4658
627488.1935341825 1013489.230420023 95.8 31 01 24 4658
627503.9061367088 1013516.8047464135 84.8 31 01 28 4658
627525.691916757 1013514.8182524167 83.5 31 01 32 4658
627532.8999836632 1013521.7638933588 93.9 31 01 36 4658
627524.6638644064 1013506.4992387287 128.7 31 01 40 4658
627540.795027476 1013516.7358246315 78.8 31 01 44 4658
627547.4827356979 1013528.291019211 78.3 31 01 48 4658
627547.5750492638 1013537.1378024392 89.8 31 01 52 4658
627550.8202943618 1013532.6144557918 90.7 31 01 56 4658
627554.1491383057 1013556.6544690861 95.6 31 02 00 4658
627559.5394684147 1013629.6885551636 91.8 31 02 08 4658
627540.3605793681 1013661.5182114469 97.5 31 02 12 4658
627529.5994036737 1013665.9730604729 99.3 31 02 16 4658
627532.9292464937 1013669.2791263526 96.9 31 02 20 4658
627520.1725358472 1013672.3784461422 112.2 31 02 28 4658
627494.0232647987 1013671.3098698665 103.5 31 02 32 4658
627514.6927448722 1013667.8932821143 98.2 31 02 36 4658
627512.9735176695 1013669.4469254571 99.4 31 02 40 4658
627506.5150775383 1013665.1687077315 94.3 31 02 44 4658
627484.2949953324 1013651.9378477142 82.4 31 02 48 4658
627485.7870916354 1013622.0194311738 68.5 31 02 52 4658
627492.0807405123 1013636.5037433875 96.7 31 02 56 4658
627466.2302757023 1013634.7726667408 95.5 31 03 00 4658
627477.1112685199 1013661.2919380483 95.2 31 03 12 4658
627471.303450918 1013673.3265304982 61.1 31 03 16 4658
627478.4345362277 1013683.6888705364 35.7 31 03 20 4658
627441.554549711 1013684.454519822 74.6 31 03 24 4658
627410.0644693676 1013697.1361058193 59.3 31 03 28 4658
627401.8505499423 1013688.6169907225 129.5 31 03 32 4658
627398.2405964339 1013710.832133296 55.5 31 03 36 4658
627385.7589963367 1013724.039485763 15.4 31 03 40 4658
627373.0762855241 1013731.4628056539 88.6 31 03 44 4658
627371.2410551057 1013758.7703982384 66.1 31 03 48 4658
627366.9832927365 1013753.5704191542 65.0 31 03 52 4658
627356.9813929312 1013737.2606445154 49.0 31 03 56 4658
627356.7590935439 1013738.0450529327 80.9 31 04 00 4658
627373.8451887908 1013711.1073204831 99.8 31 04 08 4658
627351.5144551636 1013708.337143402 54.0 31 04 12 4658
627351.9592757287 1013710.1078735817 55.2 31 04 16 4658
627334.6547105772 1013723.0121804527 45.5 31 04 20 4658
627327.2531740336 1013738.5913002114 53.2 31 04 24 4658
627325.9035810416 1013744.7905438194 67.0 31 04 28 4658
627314.8157185462 1013744.9317336922 61.4 31 04 32 4658
627320.9002298411 1013735.6736000933 50.1 31 04 36 4658
627328.0976930091 1013732.2687894206 77.6 31 04 40 4658
627309.1202412344 1013715.3108452961 64.9 31 04 44 4658
627305.556707648 1013712.9108110484 60.7 31 04 48 4658
627290.4355540331 1013702.976140987 65.6 31 04 52 4658
627291.7730222879 1013690.3078702725 59.0 31 04 56 4658
627280.3855008848 1013674.3143414283 63.8 31 05 00 4658
627291.5134695319 1013689.0132363922 69.9 31 05 08 4658
627285.9246390541 1013660.3879278987 67.2 31 05 12 4658
627282.0609719073 1013621.5394398323 108.7 31 05 16 4658
627280.1293294653 1013613.9915937805 68.7 31 05 20 4658
627291.8609627705 1013601.6332657969 79.7 31 05 24 4658
627314.4571534175 1013593.655784502 68.0 31 05 28 4658
627318.4267956133 1013603.0237290756 90.3 31 05 32 4658
627328.3288378826 1013602.6022606732 93.5 31 05 36 4658
627317.5969934762 1013574.0930688614 93.2 31 05 40 4658
627344.8865359739 1013558.9208469822 97.9 31 05 44 4658
627391.6785820902 1013547.8477287458 94.0 31 05 48 4658
627413.631412065 1013579.2350660077 100.2 31 05 52 4658
627507.1238110085 1013677.4341119657 95.2 31 19 12 4658
627499.2624496247 1013678.8462913544 98.5 31 19 16 4658
627499.5940741461 1013671.4273728657 90.5 31 19 20 4658
627496.9103606795 1013675.609732935 90.1 31 19 24 4658
627491.1892472436 1013674.3969927212 83.8 31 19 28 4658
627504.6726222408 1013667.4517886324 77.6 31 19 32 4658
627507.9152119523 1013663.7467314202 86.4 31 19 36 4658
627504.1042270056 1013663.1151765744 84.5 31 19 40 4658
627536.0515300643 1013668.8026499245 73.3 31 19 44 4658
627554.3323068331 1013670.0891241636 94.4 31 19 52 4658
627575.2370528511 1013631.2542065817 120.5 31 19 56 4658
627591.9537748591 1013654.0989571998 92.4 31 20 00 4658
627605.1961696207 1013677.5406903414 84.2 31 20 08 4658
627619.2759298675 1013673.0744660147 103.7 31 20 12 4658
627660.3398086961 1013676.5688163183 79.0 31 20 16 4658
627686.7176678524 1013671.5120483113 82.4 31 20 20 4658
627654.4270268289 1013615.6526912794 78.9 31 20 24 4658
627638.3475923154 1013565.6180786003 79.6 31 20 28 4658
627667.961698602 1013538.4444650043 63.0 31 20 32 4658
627659.8288235449 1013542.255349249 55.2 31 20 37 4658
627671.9383244757 1013515.0251784055 64.5 31 20 40 4658
627719.3712253011 1013496.12535714 77.6 31 20 44 4658
627686.4336972627 1013494.1832501723 53.9 31 20 48 4658
627726.73884701 1013497.8963562951 77.5 31 20 56 4658
627780.1522902482 1013464.5740385954 68.6 31 21 00 4658
627838.0045234938 1013445.0556142291 61.6 31 21 08 4658
627809.3524813434 1013453.3117995844 82.8 31 21 12 4658
627807.0670459331 1013449.8542748507 69.9 31 21 16 4658
627812.6077228279 1013452.5040290575 69.8 31 21 20 4658
627817.1805530092 1013455.4160479662 72.8 31 21 24 4658
627818.145394173 1013456.0826561414 80.0 31 21 56 4658
627816.9520317612 1013464.9142301435 77.6 31 22 00 4658
627789.3880045773 1013469.7348736782 60.9 31 22 16 4658
627829.327030678 1013457.5563852058 71.3 31 22 36 4658
627825.278357988 1013455.6634071448 75.6 31 22 40 4658
627812.3402361181 1013450.2694244457 69.9 31 22 44 4658
627807.1556627196 1013463.2238229944 79.2 31 22 48 4658
627808.3833906098 1013457.3559350743 65.8 31 22 52 4658
627780.6532565848 1013479.5594039198 54.3 31 22 56 4658
627793.3007185545 1013479.6887741259 91.8 31 23 00 4658
627770.9042879262 1013480.2024208696 68.7 31 23 12 4658
627764.8370704047 1013480.669357797 62.9 31 23 16 4658
627773.8350568073 1013477.7901716508 43.0 31 23 20 4658
627775.9735070048 1013462.1387974032 29.0 31 23 24 4658
627787.4436589938 1013459.3450154123 6.7 31 23 28 4658
627775.7843362832 1013473.0636025849 51.8 31 23 32 4658
627772.8577050907 1013470.7982827688 38.1 31 23 36 4658
627793.9605586741 1013462.539771987 60.2 31 23 40 4658
627805.8116896718 1013457.4692556484 54.8 31 23 44 4658
627799.2663067414 1013442.6965585225 58.5 31 23 48 4658
627816.4396604561 1013450.0615232239 53.0 31 23 52 4658
627817.3578095027 1013441.3838725573 52.8 31 23 56 4658
627791.3201123473 1013439.7404572744 49.3 32 00 00 4658
627795.2862701372 1013450.1589711274 54.0 32 00 08 4658
627817.2274273058 1013447.7197510647 44.2 32 00 12 4658
627806.6467078642 1013457.5051310143 49.1 32 00 16 4658
627810.0434183279 1013463.9187673603 44.5 32 00 20 4658
627813.9181057382 1013468.6420586733 58.9 32 00 24 4658
627811.890614124 1013473.7664656171 35.2 32 00 28 4658
627820.4609795709 1013487.5836612956 -12.1 32 00 32 4658
627808.6338292437 1013471.6548884935 17.8 32 00 36 4658
627805.9669170845 1013470.6289150625 39.6 32 00 40 4658
627838.1189664153 1013453.8361289669 56.3 32 00 44 4658
627820.6138999595 1013453.9011348474 56.6 32 00 48 4658
627797.1502561995 1013444.6248844154 79.5 32 00 52 4658
627817.7174867985 1013455.8822257876 61.2 32 00 56 4658
627748.0711070347 1013459.4609742461 85.1 32 01 00 4658
627702.8646988068 1013442.2411135839 92.4 32 01 08 4658
627670.1570437583 1013437.1592656941 95.0 32 01 12 4658
627639.4654879284 1013440.6761095619 106.0 32 01 16 4658
627621.9042592847 1013434.3162615801 113.1 32 01 20 4658
627591.2283601228 1013429.5838449846 128.2 32 01 24 4658
627613.0589736284 1013427.3432007865 115.0 32 01 28 4658
627614.3625331091 1013428.6080352592 112.9 32 01 32 4658
627620.6953826962 1013424.1499552418 118.6 32 01 36 4658
627628.7034121036 1013428.3779023871 126.1 32 01 40 4658
627620.5194953238 1013424.171503364 115.7 32 01 44 4658
627617.1091445714 1013421.9709830388 109.1 32 01 48 4658
627614.9453161971 1013428.488278307 113.0 32 01 52 4658
627606.7341250862 1013429.3242914947 112.8 32 01 56 4658
627605.2203198348 1013428.5121607386 114.0 32 02 00 4658
627598.592757893 1013428.9551980831 109.5 32 02 08 4658
627607.7477386901 1013408.08493951 112.1 32 02 12 4658
627609.0663695562 1013404.6833007889 116.5 32 02 16 4658
627616.3314854035 1013424.5892430556 122.0 32 02 20 4658
627621.2508555753 1013418.8770315931 115.2 32 02 24 4658
627615.6059336179 1013411.073891356 100.2 32 02 28 4658
627599.1077522691 1013405.5910796 111.3 32 02 32 4658
627586.237290365 1013406.4562842255 91.8 32 02 36 4658
627591.4030807571 1013412.9087831506 93.0 32 02 40 4658
627592.5762546904 1013396.701386021 96.1 32 02 44 4658
627588.8728612451 1013403.5786284483 108.1 32 02 48 4658
627592.6593760547 1013411.7959710263 102.2 32 02 52 4658
627585.9416274772 1013409.5405414483 114.1 32 02 56 4658
627589.8933623587 1013417.6367780931 125.0 32 03 00 4658
627617.0352017019 1013427.8536578818 96.2 32 03 08 4658
627617.6834867566 1013417.6601757745 124.2 32 03 12 4658
627618.1640402601 1013421.9743901375 116.8 32 03 16 4658
627616.2396845219 1013425.7942803713 122.0 32 03 20 4658
627620.6552025678 1013426.3835633859 119.8 32 03 24 4658
627620.627082409 1013428.2854672284 123.6 32 03 28 4658
627619.7888137795 1013429.255873268 120.3 32 03 32 4658
627618.2147089315 1013430.1022634889 121.9 32 03 36 4658
627615.609494696 1013423.5806233383 117.5 32 03 40 4658
627607.9892928633 1013401.3402737603 115.1 32 03 44 4658
627610.5233651972 1013409.4761670056 109.8 32 03 48 4658
627585.3911750173 1013392.8410223123 108.5 32 03 52 4658
627573.003859779 1013404.0250052811 129.9 32 03 56 4658
627576.7758269156 1013409.9422127253 125.6 32 04 00 4658
627543.3955185687 1013453.2375162452 77.3 32 04 20 4658
627535.1405147077 1013460.8409626825 87.5 32 04 24 4658
627523.8417804639 1013465.0065738444 78.9 32 04 28 4658
627507.3071548084 1013457.2014793892 81.6 32 04 32 4658
627498.2422423905 1013426.3422322816 84.4 32 04 36 4658
627483.6833486216 1013398.7826948514 61.2 32 04 40 4658
627511.4783152718 1013417.737506736 92.0 32 04 44 4658
627514.2905105348 1013421.4178728169 105.1 32 04 48 4658
627505.9137438883 1013425.8914888619 82.8 32 04 52 4658
627512.2307072623 1013416.1365096197 87.3 32 04 56 4658
627503.3686318223 1013410.9548351301 57.2 32 05 00 4658
627508.629224079 1013422.0852057097 90.1 32 05 08 4658
627501.5504663286 1013405.7074268163 85.9 32 05 12 4658
627490.2382007715 1013407.2522347742 99.6 32 05 16 4658
627489.13817264 1013414.425394841 104.3 32 05 20 4658
627488.4658413159 1013411.6476415222 104.4 32 05 24 4658
627492.6851005605 1013418.572570093 116.7 32 05 28 4658
627496.19224844 1013421.4258192341 127.4 32 05 32 4658
627505.3519517152 1013460.3688457786 98.2 32 05 36 4658
627499.6674451801 1013461.4231379551 99.4 32 05 40 4658
627497.9457148069 1013460.3449459525 94.8 32 05 44 4658
627492.5323123665 1013472.7346707279 97.2 32 05 48 4658
627485.8231983164 1013491.6444964268 99.0 32 05 52 4658
627476.4371460966 1013526.2592509789 117.6 32 05 56 4658
627517.4320916007 1013564.7742291723 92.8 32 06 00 4658
627503.5457522471 1013567.1843096794 105.7 32 06 08 4658
627411.3459629265 1013613.2534749961 92.6 32 18 56 4658
627410.6090083793 1013599.8486785291 87.0 32 19 00 4658
627393.8080705923 1013596.2669624845 90.6 32 19 08 4658
627394.4944036183 1013608.3335643584 103.9 32 19 12 4658
627408.8499554343 1013620.565888497 63.8 32 19 16 4658
627410.9496959116 1013640.7205226988 60.1 32 19 20 4658
627414.9015304622 1013676.0417898291 59.6 32 19 24 4658
627429.9010230275 1013713.4665622278 66.2 32 19 28 4658
627449.9640754233 1013710.6782996943 63.3 32 19 32 4658
627464.7049030061 1013675.00818621 58.3 32 19 36 4658
627446.878613502 1013726.9901060386 81.7 32 19 40 4658
627459.5453326234 1013697.2846760303 59.0 32 19 44 4658
627457.0978254805 1013740.6466638988 74.4 32 19 48 4658
627467.1009474332 1013739.5399581102 77.1 32 19 52 4658
627480.8865649471 1013751.2949804566 91.2 32 19 56 4658
627524.9776071424 1013746.3063430215 92.0 32 20 00 4658
627603.7810363851 1013734.6291383764 105.0 32 20 08 4658
627604.3406938665 1013717.8557940229 102.9 32 20 12 4658
627613.2133874752 1013723.1260016398 124.1 32 20 16 4658
627635.9397461627 1013715.679914045 107.5 32 20 20 4658
627619.413397105 1013688.3461599142 111.1 32 20 24 4658
627626.7486570837 1013683.1172563101 91.7 32 20 28 4658
627609.429563162 1013669.8689796291 96.4 32 20 32 4658
627605.2105428283 1013669.6894791225 105.7 32 20 36 4658
627606.6954535305 1013676.041630639 92.7 32 20 40 4658
627599.7045645511 1013676.7157091643 87.2 32 20 44 4658
627597.7338859731 1013677.8704450467 96.4 32 20 48 4658
627604.2576526912 1013678.9309804308 88.3 32 20 52 4658
627607.4368081772 1013677.8575554277 116.0 32 20 56 4658
627625.8299677377 1013678.3703588999 108.9 32 21 00 4658
627661.0183413753 1013602.6143616181 70.8 32 21 08 4658
627656.3362042818 1013585.9236006523 75.4 32 21 12 4658
627652.0198388854 1013558.0542731114 58.7 32 21 16 4658
627650.0408048328 1013551.5899422722 74.8 32 21 20 4658
627690.5377299547 1013529.9473882028 13.6 32 21 24 4658
627722.9849540087 1013510.1919002329 75.6 32 21 28 4658
627780.4632694328 1013480.5429616766 78.3 32 21 32 4658
627802.827413077 1013462.8338466113 71.0 32 21 36 4658
627814.4441898391 1013448.683861756 80.7 32 21 40 4658
627805.2772386891 1013463.0297588913 70.0 32 21 44 4658
627810.6079807966 1013462.6378522083 78.9 32 21 48 4658
627803.4335609783 1013458.888060119 73.6 32 21 52 4658
627802.9501106743 1013462.2702796129 74.8 32 21 56 4658
627800.6117592559 1013468.3778537159 62.9 32 22 00 4658
627798.4299291222 1013443.0808873265 89.4 32 22 08 4658
627806.3628238776 1013453.5454074426 69.6 32 22 12 4658
627798.6609623064 1013453.1887517272 72.7 32 22 16 4658
627794.265413063 1013449.823925851 71.5 32 22 20 4658
627806.6797792839 1013440.4867985089 65.1 32 22 24 4658
627824.1695039782 1013445.1656677963 57.0 32 22 28 4658
627817.2172417722 1013437.2808569288 60.0 32 22 32 4658
627821.289223594 1013442.1596005268 32.3 32 22 36 4658
627809.0045478181 1013441.9761058252 66.8 32 22 48 4658
627802.4520052521 1013443.0054317729 67.0 32 22 52 4658
627812.1452113545 1013456.2070016235 70.1 32 22 56 4658
627808.2969921688 1013460.2860561885 68.3 32 23 00 4658
627746.5341591319 1013452.2129408391 68.8 32 23 08 4658
627726.0748158157 1013455.1656625842 70.6 32 23 12 4658
627721.2765626612 1013454.0001081332 75.8 32 23 16 4658
627724.6928612238 1013467.9554313433 98.0 32 23 20 4658
627721.7794106723 1013468.4104539915 106.8 32 23 24 4658
627662.2627029312 1013421.5528814491 85.7 32 23 36 4658
627616.8029197042 1013435.1291429964 97.9 32 23 40 4658
627605.1076600979 1013425.9684320695 96.8 32 23 44 4658
627597.0868542977 1013422.2933542185 94.8 32 23 48 4658
627592.2640280683 1013428.7357150493 95.1 32 23 52 4658
627606.9851243524 1013436.66768587 108.7 32 23 56 4658
627591.3130543525 1013430.5793481502 77.8 33 00 00 4658
627635.0650328177 1013483.0476272597 218.6 33 00 08 4658
627610.4990992332 1013454.4162403373 145.9 33 00 12 4658
627580.301395846 1013420.7020759939 85.7 33 00 16 4658
627538.1909897523 1013441.7645187697 88.7 33 00 24 4658
627515.3925891396 1013440.8505195442 70.5 33 00 28 4658
627493.2321624354 1013443.1454423243 55.4 33 00 32 4658
627518.7256985798 1013446.556200594 96.5 33 00 36 4658
627490.3074456259 1013426.6594303747 100.8 33 00 40 4658
627452.6587656175 1013416.9727127956 82.7 33 00 44 4658
627450.2807872401 1013411.5355141866 109.2 33 00 48 4658
627443.9303651727 1013411.2275205738 113.6 33 00 52 4658
627452.1729482913 1013410.8781313072 112.7 33 00 56 4658
627426.3951448115 1013403.6072255417 104.2 33 01 00 4658
627438.3316622117 1013385.676305944 115.0 33 01 08 4658
627444.5386206191 1013375.9541369261 111.4 33 01 12 4658
627439.2723775593 1013404.0468470799 110.1 33 01 16 4658
627432.9449718412 1013437.4882562467 117.4 33 01 20 4658
627415.3350616907 1013456.4403412694 117.6 33 01 24 4658
627418.3106575517 1013457.1576555459 118.2 33 01 28 4658
627388.6431326437 1013463.4535748912 96.2 33 01 32 4658
627383.9708760082 1013505.0059105046 112.2 33 01 36 4658
627382.7115314702 1013510.4756099369 123.9 33 01 40 4658
627373.5864089377 1013515.3117544018 121.6 33 01 44 4658
627368.6664740399 1013517.806081916 123.6 33 01 48 4658
627350.1454889299 1013516.0213146689 108.9 33 01 52 4658
627331.6936889465 1013516.6363867027 117.5 33 01 56 4658
627336.4010510314 1013511.9076337835 91.7 33 02 00 4658
627316.372205857 1013534.7444077961 94.3 33 02 08 4658
627347.0252557764 1013560.1773060999 68.3 33 02 12 4658
627368.6376664843 1013584.6853791177 75.2 33 02 16 4658
627375.7495210106 1013590.80132201 132.7 33 02 20 4658
627381.6595130946 1013587.9673875537 90.5 33 02 24 4658
627382.0447503702 1013587.7695838843 89.2 33 02 28 4658
627371.5199789535 1013563.2087827079 28.7 33 02 32 4658
627375.8432109235 1013575.3755736848 111.5 33 02 44 4658
627394.7137638631 1013598.2382251312 149.7 33 02 48 4658
627400.5846675655 1013604.1179514935 202.3 33 02 52 4658
627403.7375104184 1013590.7588742189 26.6 33 02 56 4658
627385.8980756126 1013599.1276203202 55.8 33 03 00 4658
627401.6513758585 1013610.6788458418 102.5 33 03 12 4658
627400.9857074749 1013602.4273552531 104.3 33 03 16 4658
627408.139145712 1013602.4614831188 95.0 33 03 20 4658
627463.2880929934 1013606.6755893169 99.8 33 03 24 4658
627489.7129096637 1013597.2840617112 124.3 33 03 28 4658
627510.2612595769 1013600.7673338194 95.7 33 03 32 4658
627515.2689251143 1013598.3285977027 88.8 33 03 36 4658
627510.511771734 1013608.2655379749 147.7 33 03 40 4658
627506.2741680527 1013569.5816661391 96.3 33 03 44 4658
627507.8269976991 1013571.9199380787 106.7 33 03 48 4658
627509.4641930233 1013582.165027761 104.0 33 03 52 4658
627510.9081591424 1013594.3999529934 130.7 33 03 56 4658
627517.5173436095 1013575.8104937742 87.7 33 04 00 4658
627536.1947432827 1013559.7701816178 104.7 33 04 08 4658
627518.7454520715 1013518.7435750517 62.2 33 04 12 4658
627530.5548986013 1013550.3968178757 86.3 33 04 16 4658
627533.5004895154 1013546.7903256887 74.3 33 04 20 4658
627535.628014828 1013541.3013147976 85.2 33 04 24 4658
627536.9518527329 1013553.3036335496 79.9 33 04 28 4658
627528.8645594281 1013532.786856908 83.6 33 04 32 4658
627531.2355657574 1013513.1442562459 89.3 33 04 36 4658
627535.2569411338 1013520.0906695193 60.4 33 04 40 4658
627543.0586032807 1013523.5659834521 71.1 33 04 44 4658
627536.0330113934 1013524.7707535587 64.8 33 04 48 4658
627528.5585758667 1013522.0484484929 76.3 33 04 52 4658
627531.4289048057 1013531.5455684963 80.3 33 04 56 4658
627489.8590889066 1013528.1492634243 68.3 33 05 00 4658
627432.6148550346 1013505.7709717227 84.7 33 05 08 4658
627432.5187147682 1013515.1368742518 96.5 33 05 12 4658
627404.4747357556 1013498.4482207859 67.3 33 05 16 4658
627409.963232006 1013479.7998445923 79.8 33 05 20 4658
627406.2363033531 1013470.1341041495 130.1 33 05 24 4658
627417.7317829018 1013469.6956758248 99.0 33 05 28 4658
627404.3372227242 1013489.9772718619 119.3 33 05 32 4658
627431.7414227687 1013514.2386608875 110.8 33 05 36 4658
627447.3030338263 1013551.1565713804 82.9 33 05 40 4658
627428.1085544941 1013546.9589262038 126.3 33 05 44 4658
627428.6676697932 1013574.6170437103 50.8 33 05 48 4658
627442.696702473 1013565.4398391084 118.8 33 05 52 4658
627442.6468645846 1013570.6701610357 106.7 33 05 56 4658
627439.8807003563 1013569.7544734651 102.1 33 06 00 4658
627597.7067395773 1013638.647244704 79.9 33 18 56 4658
627614.2822899916 1013674.5732946447 85.8 33 19 00 4658
627608.950595175 1013671.8689501937 100.2 33 19 08 4658
627609.755415573 1013674.4480896025 96.5 33 19 12 4658
627588.917430411 1013685.803806155 107.3 33 19 16 4658
627555.7747011668 1013662.3862807151 89.1 33 19 24 4658
627554.076118796 1013654.1425059633 93.9 33 19 28 4658
627522.3350190629 1013666.2702941798 94.1 33 19 32 4658
627520.8741948293 1013669.4724292386 104.7 33 19 36 4658
627515.5915411386 1013671.9987408048 86.6 33 19 40 4658
627518.9751606828 1013668.8581030732 103.6 33 19 44 4658
627517.3921253452 1013662.262361628 101.3 33 19 48 4658
627514.0276568087 1013669.6825484073 108.7 33 19 52 4658
627507.6793095026 1013692.5744520507 111.2 33 19 56 4658
627493.4650084253 1013691.0689024725 66.0 33 20 00 4658
627491.0969549207 1013702.9929553272 104.4 33 20 08 4658
627523.0499841061 1013683.069865885 96.3 33 20 12 4658
627529.6906448579 1013658.1331574564 91.4 33 20 16 4658
627539.678633935 1013654.9143198739 84.1 33 20 20 4658
627524.7401827872 1013656.4695181568 104.7 33 20 24 4658
627520.1392972794 1013665.6550102176 110.1 33 20 28 4658
627485.9341827682 1013668.3754817385 142.8 33 20 32 4658
627499.6034251663 1013668.5301793899 127.1 33 20 36 4658
627510.452340283 1013653.9132066126 107.9 33 20 40 4658
627566.0202991912 1013627.0334202313 71.2 33 20 44 4658
627562.08403822 1013576.7173789927 96.9 33 20 48 4658
627626.1274618742 1013548.8697964657 86.4 33 20 52 4658
627653.7629409434 1013542.3131560779 72.6 33 20 56 4658
627709.7400217977 1013504.531563935 68.3 33 21 00 4658
627817.3005321437 1013455.6928889871 72.5 33 21 08 4658
627809.2177578203 1013454.1960130233 76.9 33 21 12 4658
627808.8318080108 1013441.0245491428 87.4 33 21 16 4658
627798.1402141302 1013440.9236178417 92.1 33 21 20 4658
627776.2430763182 1013429.7504526422 148.8 33 21 24 4658
627797.0588431449 1013445.7082840139 79.3 33 21 28 4658
627789.7883923098 1013458.0587994242 94.0 33 21 32 4658
627801.5356074315 1013464.7316639565 80.0 33 21 36 4658
627790.436078313 1013461.6547815308 97.5 33 21 40 4658
627811.3428078254 1013459.6766542724 61.1 33 21 44 4658
627804.2614328811 1013464.5303767833 75.7 33 22 00 4658
627810.9408984757 1013448.0422166615 60.2 33 22 20 4658
627815.6443974641 1013444.5298928042 73.2 33 22 24 4658
627824.4966365832 1013456.1363771468 78.1 33 22 28 4658
627814.5166958987 1013443.2545615502 62.1 33 22 32 4658
627812.6200842973 1013458.8735436149 75.1 33 22 36 4658
627808.6541038569 1013461.9901611363 74.4 33 22 40 4658
627803.2175901681 1013461.1100427039 71.7 33 22 44 4658
627797.0547382946 1013450.3747952551 69.0 33 22 48 4658
627807.6126791714 1013451.0282000317 48.6 33 22 52 4658
627805.5679323144 1013454.6928802277 53.9 33 22 56 4658
627807.2969247574 1013456.9211541568 47.8 33 23 00 4658
627815.8066269077 1013452.1273430461 58.0 33 23 12 4658
627814.5470994203 1013450.8405271982 57.1 33 23 16 4658
627809.6323013008 1013465.321818151 73.0 33 23 20 4658
627801.9074761287 1013455.0791322202 50.6 33 23 24 4658
627795.094174283 1013438.2045276315 45.8 33 23 28 4658
627795.1437058288 1013450.0700451008 58.5 33 23 32 4658
627805.839660923 1013448.8218999493 82.2 33 23 36 4658
627815.0129936707 1013456.2826272078 65.1 33 23 40 4658
627785.8657947951 1013447.762066305 55.2 33 23 44 4658
627828.2830218553 1013460.9810235788 64.7 34 00 00 4658
627838.1113721177 1013449.390741577 84.2 34 00 12 4658
627805.0014949186 1013449.7591285856 68.3 34 00 16 4658
627806.3088187904 1013456.6525631652 64.5 34 00 20 4658
627801.7086179663 1013458.8050738192 74.0 34 00 24 4658
627807.6347422691 1013457.7958380167 68.3 34 00 28 4658
627806.9051237802 1013469.3381504021 92.9 34 00 32 4658
