627092.981831885 1013197.7044266048 132.2 59 07 36 4693
627055.3125947451 1013245.5975223723 110.7 59 07 40 4693
627049.1153967835 1013255.7289228342 99.1 59 07 44 4693
627005.5204283365 1013232.7427897895 111.1 59 07 48 4693
626962.4193531044 1013206.5072215465 127.3 59 07 52 4693
626947.9145842276 1013175.6417495043 121.1 59 07 56 4693
626859.8029734863 1013115.446151971 126.7 59 08 00 4693
626856.4079356629 1013115.3025583316 124.5 59 08 08 4693
626867.0298912593 1013205.5816432498 114.3 59 08 12 4693
626857.618889407 1013292.6338162224 108.6 59 08 16 4693
626851.4557369348 1013288.754762035 106.4 59 08 20 4693
626847.2490611167 1013294.9890741894 106.3 59 08 24 4693
626848.8380994631 1013296.3322025762 111.3 59 08 28 4693
626850.874253758 1013291.8933902853 111.7 59 08 32 4693
626844.2791978158 1013292.4804152582 112.2 59 08 36 4693
626813.2166325446 1013295.200532593 103.0 59 08 40 4693
626806.9361885096 1013300.4771986454 102.2 59 08 44 4693
626809.4101157009 1013303.4376443467 108.4 59 08 48 4693
626809.3117159716 1013303.2825154816 104.9 59 08 52 4693
626810.0097401156 1013301.4933466421 107.9 59 08 56 4693
626810.1931026299 1013302.5665687001 105.7 59 09 00 4693
626809.415260968 1013301.8342394226 106.8 59 09 08 4693
626808.4468534042 1013302.2734550058 110.2 59 09 12 4693
626808.2841549285 1013301.6094481881 109.3 59 09 16 4693
626808.4286732198 1013301.090182233 111.8 59 09 20 4693
626808.1391043782 1013302.2945836172 112.3 59 09 24 4693
626807.6819518335 1013300.932972958 104.9 59 09 28 4693
626807.5579086541 1013305.3447483551 120.0 59 09 32 4693
626809.4434360546 1013303.3271704819 113.3 59 09 36 4693
626809.8235388168 1013301.3047617862 100.8 59 09 40 4693
626811.3139298384 1013302.5701654309 111.1 59 09 44 4693
626809.1199907886 1013301.3909687595 105.4 59 09 48 4693
626810.2465192921 1013303.0422375057 104.6 59 09 52 4693
626809.98527918 1013302.267333669 108.7 59 09 56 4693
626810.2276294671 1013302.080124025 109.9 59 10 00 4693
626809.7799751366 1013301.1829831246 108.8 59 10 08 4693
626809.53648934 1013301.7240476513 104.1 59 10 12 4693
626810.0290202803 1013302.3338225064 103.9 59 10 16 4693
626810.2490742002 1013302.246064024 102.1 59 10 20 4693
626807.4638379838 1013303.8405477721 100.6 59 10 24 4693
626811.2132590634 1013303.1227463237 98.8 59 10 28 4693
626811.4509253065 1013304.3951880761 102.7 59 10 32 4693
626810.5745065564 1013303.5630197218 103.2 59 10 36 4693
626810.3731650325 1013304.668181509 101.5 59 10 40 4693
626809.5533210716 1013303.3275230994 103.0 59 10 44 4693
626821.5181090888 1013300.4687027686 104.8 59 10 48 4693
626820.2509889503 1013301.5372699545 105.8 59 10 52 4693
626812.5367882545 1013298.1729741894 99.3 59 10 56 4693
626813.1753634408 1013297.7879906361 98.0 59 11 00 4693
626788.0294678814 1013316.1411206227 114.0 59 11 08 4693
626772.2200097647 1013339.1354335677 111.4 59 11 12 4693
626778.0920406426 1013341.2774232668 117.5 59 11 16 4693
626773.4383832127 1013353.2605076836 114.6 59 11 20 4693
626722.9448833792 1013370.6698288533 97.0 59 11 24 4693
626683.6058788981 1013370.6210949931 100.7 59 11 28 4693
626682.1299839639 1013371.6889965509 96.9 59 11 32 4693
626685.116974517 1013365.4286444333 97.8 59 11 36 4693
626684.2863508093 1013367.4496091278 97.9 59 11 40 4693
626687.50438369 1013361.1015332404 99.8 59 11 44 4693
626684.8302151985 1013355.4754577979 105.0 59 11 48 4693
626679.4856658913 1013353.3241152503 105.2 59 11 52 4693
626683.783898625 1013356.2240524195 106.4 59 11 56 4693
626690.3411511816 1013357.140779304 103.1 59 12 00 4693
626692.6145053381 1013333.5501360918 104.7 59 12 08 4693
626691.3080450445 1013333.1810309916 100.4 59 12 12 4693
626692.1680898085 1013332.2659681541 102.9 59 12 16 4693
626691.8176635292 1013331.8888701121 97.7 59 12 20 4693
626691.5213642849 1013331.7662813305 109.3 59 12 24 4693
626691.0014663682 1013332.8372477596 95.0 59 12 28 4693
626691.4074377858 1013333.0265366044 97.0 59 12 32 4693
626690.6950649527 1013332.4381747252 104.1 59 12 36 4693
626691.8349252922 1013333.3596494093 108.9 59 12 40 4693
626691.9465454757 1013336.246164813 109.2 59 12 44 4693
626692.2757411727 1013332.9629720108 102.2 59 12 48 4693
626688.9587030305 1013339.3439046179 104.0 59 12 52 4693
626692.0800046246 1013332.3209761193 103.0 59 12 56 4693
626688.7178797079 1013335.6276194102 110.3 59 13 00 4693
626692.8792906913 1013336.6472459947 113.1 59 13 08 4693
626691.6286947206 1013335.9908100314 108.8 59 13 12 4693
626695.4496043025 1013336.9651129232 107.0 59 13 16 4693
626694.6192610632 1013342.3256170619 109.8 59 13 20 4693
626696.4590584717 1013334.0047853305 120.3 59 13 24 4693
626698.1700669376 1013341.8615045372 107.6 59 13 28 4693
626692.4193695638 1013336.1481580632 101.6 59 13 32 4693
626699.5890543852 1013361.9696349989 155.0 59 13 37 4693
626686.2464283507 1013331.8931248167 137.3 59 13 40 4693
626689.3720839103 1013337.2220795731 114.6 59 13 44 4693
626686.7497318912 1013342.853290403 105.6 59 13 48 4693
626691.0450247683 1013343.2430358449 118.4 59 13 52 4693
626683.4878897172 1013338.8729843264 85.6 59 13 56 4693
626687.2458461303 1013338.9182063388 91.5 59 14 00 4693
626672.5627103968 1013336.2282553627 68.9 59 14 08 4693
626685.9395292028 1013335.0768664145 88.1 59 14 12 4693
626693.9889507646 1013336.7060940932 96.6 59 14 16 4693
626691.0461966097 1013339.4501199217 101.8 59 14 20 4693
626690.2352802163 1013342.1788645464 90.4 59 14 24 4693
626693.9977411344 1013337.3917229231 100.3 59 14 28 4693
626689.037572315 1013338.7359633626 99.6 59 14 32 4693
626694.8718566683 1013338.942655981 97.2 59 14 36 4693
626689.0471798464 1013335.7392559008 102.4 59 14 40 4693
626689.2879693896 1013336.0385958976 94.8 59 14 44 4693
626690.9042698812 1013335.7341517452 98.3 59 14 48 4693
626692.9037848458 1013335.8622012077 105.4 59 14 52 4693
626686.5832073377 1013333.0995346496 109.1 59 14 56 4693
626687.2152589102 1013331.3212109588 95.9 59 15 00 4693
626679.6772250833 1013334.7029319346 103.9 59 15 08 4693
626699.9833144365 1013334.9670794427 81.8 59 15 12 4693
626685.3818801142 1013337.640551943 100.1 59 15 16 4693
626689.4546047797 1013335.4751683222 103.5 59 15 20 4693
626695.7730544967 1013338.9013130956 100.0 59 15 24 4693
626694.1324726031 1013339.92445406 104.0 59 15 28 4693
626690.4979738912 1013345.9283941421 109.7 59 15 32 4693
626694.615067795 1013299.0774727629 101.9 59 15 36 4693
626735.9941594899 1013211.2431633106 116.2 59 15 40 4693
626734.1556376104 1013147.1999523963 133.9 59 15 44 4693
626740.4952025199 1013089.2206757626 139.7 59 15 48 4693
626741.2992725167 1013061.2131496686 135.8 59 15 52 4693
626749.4083030015 1013061.4050229356 140.9 59 15 56 4693
626770.0924097176 1013056.9154280707 133.5 59 16 00 4693
626813.1247390737 1013060.1386674601 142.3 59 16 08 4693
626860.1984657416 1013050.4259142833 157.4 59 16 12 4693
626873.4342878845 1013004.2235071553 169.6 59 16 16 4693
626874.8944427203 1013008.0653473216 166.6 59 16 20 4693
626924.3026838609 1012979.7383451622 149.9 59 16 24 4693
626952.0451808241 1012977.5605244717 150.6 59 16 28 4693
626954.3756008592 1012973.8856673709 149.0 59 16 32 4693
626954.5005445237 1012969.1974417976 147.3 59 16 36 4693
627017.2966308688 1012932.9517191657 155.3 59 16 40 4693
627030.3840502106 1012926.1598752948 152.2 59 16 44 4693
627032.9794241498 1012925.5268462828 157.8 59 16 48 4693
627078.326107673 1012933.5459469144 145.1 59 16 52 4693
627082.4721566325 1012932.5198147851 147.1 59 16 56 4693
627099.1572406485 1012924.3794129273 155.1 59 17 00 4693
627223.2202272336 1012948.221633194 150.4 59 17 08 4693
627244.9975723795 1012945.5272018367 157.8 59 17 12 4693
627246.2152799303 1012946.161432716 156.2 59 17 16 4693
627246.29582494 1012934.7939729897 152.2 59 17 20 4693
627226.6313094873 1012892.1680868408 149.6 59 17 24 4693
627234.2059553926 1012894.5257215807 156.7 59 17 28 4693
627235.1335829005 1012896.5191635748 149.0 59 17 32 4693
627236.0192217263 1012894.4873250553 161.8 59 17 36 4693
627230.9559862814 1012880.0291621052 166.9 59 17 40 4693
627224.3939286765 1012877.1661147723 163.6 59 17 44 4693
627226.0140976601 1012875.6674282306 179.2 59 17 48 4693
627229.225155735 1012878.3538200684 172.2 59 17 52 4693
627227.8326951894 1012877.3872849074 168.5 59 17 56 4693
627227.6681859465 1012877.2872326659 173.3 59 18 00 4693
627280.2056251566 1012938.6518310412 158.5 60 06 08 4693
627280.7593156835 1012940.7435934568 159.5 60 06 12 4693
627280.2250033511 1012939.4591342666 155.7 60 06 16 4693
627281.8390486451 1012939.8624224135 157.5 60 06 20 4693
627282.1523197945 1012938.1273103602 158.4 60 06 24 4693
627313.979134612 1012930.2347948558 148.7 60 06 28 4693
627328.0852603726 1012907.4120856078 149.0 60 06 32 4693
627329.5687442705 1012910.8227569726 159.6 60 06 36 4693
627365.34404393 1012925.7226752902 146.3 60 06 40 4693
627417.6937529577 1012936.1532860654 154.9 60 06 44 4693
627426.6892308674 1012937.4871366683 149.8 60 06 48 4693
627421.8079683501 1012927.961437896 158.2 60 06 52 4693
627421.640151889 1012942.5244128917 148.2 60 06 56 4693
627525.8056685262 1013006.2342913626 115.9 60 07 00 4693
627635.447641496 1012976.6981001946 117.3 60 07 08 4693
627644.3790782109 1012987.6523486583 115.7 60 07 12 4693
627640.3211236912 1013046.4683743216 111.0 60 07 16 4693
627691.2639102613 1013077.3633941626 101.6 60 07 20 4693
627688.1452084469 1013097.1252181452 88.2 60 07 24 4693
627690.8606824575 1013185.1675998796 77.1 60 07 28 4693
627695.0975367313 1013190.0468572155 78.7 60 07 32 4693
627692.148993116 1013191.1541996532 79.8 60 07 36 4693
627684.3538054689 1013202.6626229153 76.1 60 07 40 4693
627713.7164996319 1013307.7763772471 100.4 60 07 44 4693
627706.4733857913 1013366.0734471312 108.7 60 07 48 4693
627668.5169440724 1013458.4297706148 87.3 60 07 52 4693
627632.5653361686 1013542.510064794 83.4 60 07 56 4693
627611.7947522644 1013570.3978689306 78.1 60 08 00 4693
627611.1266168193 1013423.4334477165 102.3 60 08 08 4693
627610.9392496969 1013409.9972412182 113.4 60 08 12 4693
627617.4557757119 1013413.3136037358 117.1 60 08 16 4693
627617.6351988891 1013412.1973142882 116.3 60 08 20 4693
627618.027606249 1013413.1827533175 117.6 60 08 24 4693
627619.4485155983 1013412.1368222665 116.0 60 08 28 4693
627618.9497473062 1013413.4621843491 120.5 60 08 32 4693
627618.9959513567 1013412.7656727505 117.2 60 08 36 4693
627602.3571600011 1013409.9916417478 113.4 60 08 40 4693
627596.4266814102 1013412.3499836032 114.9 60 08 44 4693
627610.8419404107 1013426.5177404949 108.0 60 08 48 4693
627616.0527380614 1013446.2511771462 107.9 60 08 52 4693
627615.0406183844 1013446.6128257575 109.1 60 08 56 4693
627673.8036129931 1013386.6576004898 101.9 60 09 00 4693
627698.3135649731 1013344.2073075054 106.5 60 09 08 4693
627695.3777540687 1013348.1787401604 113.3 60 09 12 4693
627678.6510602013 1013338.5926000418 117.8 60 09 16 4693
627629.4969930212 1013281.3407978029 122.2 60 09 20 4693
627580.3766447525 1013220.4068361387 108.3 60 09 24 4693
627572.5080840668 1013203.5952313324 117.8 60 09 28 4693
627575.9391493138 1013206.1939035087 116.3 60 09 32 4693
627573.7238873286 1013204.8155475158 121.0 60 09 36 4693
627571.522897631 1013202.4198920308 121.2 60 09 40 4693
627531.1578622179 1013121.8197959902 100.2 60 09 44 4693
627522.8170331278 1013108.3241142613 125.7 60 09 48 4693
627529.3393289463 1013092.8416972174 119.9 60 09 52 4693
627596.376208163 1013046.7909343049 116.4 60 09 56 4693
627629.9150453949 1012978.327894756 129.4 60 10 00 4693
627628.9257916046 1012975.0072689073 122.6 60 10 08 4693
627630.1350755029 1012974.8453016657 123.8 60 10 12 4693
627631.1601591555 1012973.8754979698 132.6 60 10 16 4693
627631.0927636106 1012974.3286627313 126.2 60 10 20 4693
627631.6217804861 1012977.2497108497 121.4 60 10 24 4693
627630.8664932738 1012976.3405075325 122.0 60 10 28 4693
627626.7294671284 1012971.1630149919 130.4 60 10 32 4693
627636.6250306634 1012976.204286976 130.1 60 10 36 4693
627634.7957230599 1012971.0010704425 132.8 60 10 40 4693
627636.4619948551 1012972.2449584162 117.7 60 10 44 4693
627672.0482258644 1012960.5829910202 106.8 60 10 48 4693
627716.8650918251 1012969.3088533316 105.8 60 10 52 4693
627747.0211677587 1012934.3852586785 112.4 60 10 56 4693
627773.4289490471 1012906.6262800528 115.1 60 11 00 4693
627758.1810862502 1012867.8183238608 119.7 60 11 08 4693
627732.376610262 1012861.8962619557 103.6 60 11 12 4693
627733.3495427686 1012860.0637592413 104.7 60 11 16 4693
627705.2239347753 1012831.1001774279 105.8 60 11 20 4693
627691.5451046091 1012769.17482604 118.4 60 11 24 4693
627687.8946335246 1012763.0479035368 120.5 60 11 28 4693
627669.8579649543 1012747.2871481045 99.4 60 11 32 4693
627689.0354930868 1012739.8406209181 107.7 60 11 36 4693
627684.0666319638 1012743.8386676554 105.0 60 11 40 4693
627648.1663145038 1012757.4237448011 115.6 60 11 44 4693
627629.37130556 1012785.9482730071 101.7 60 11 48 4693
627629.7397144934 1012784.1580491951 120.6 60 11 52 4693
627631.0432674014 1012782.0280428126 118.8 60 11 56 4693
627631.0861512256 1012782.3599244029 110.8 60 12 00 4693
627626.167090208 1012774.3379775888 108.8 60 12 08 4693
627625.495205251 1012778.2282617827 109.8 60 12 12 4693
627625.363988733 1012774.6228959855 117.8 60 12 16 4693
627624.6980647459 1012776.6664958857 124.9 60 12 20 4693
627623.0505842346 1012776.4068416301 115.4 60 12 24 4693
627627.4671450973 1012773.2916540906 118.7 60 12 28 4693
627630.1048862474 1012776.5623096904 104.7 60 12 32 4693
627626.8094663897 1012772.7808583133 121.7 60 12 36 4693
627630.3675134458 1012773.5000623144 115.9 60 12 40 4693
627631.3228144781 1012773.7243081586 111.5 60 12 44 4693
627625.4598171373 1012775.5742023424 116.9 60 12 48 4693
627622.261398351 1012775.7850403952 116.5 60 12 52 4693
627624.223017401 1012777.4500879461 117.5 60 12 56 4693
627624.6988500118 1012776.4232201101 113.7 60 13 00 4693
627606.5408781846 1012781.2191202901 115.2 60 13 08 4693
627561.5448277645 1012780.2777404622 120.2 60 13 12 4693
627553.3952550816 1012755.160613972 127.0 60 13 16 4693
627540.1583596182 1012760.5474418374 129.1 60 13 20 4693
627529.7041831737 1012741.2947408897 119.3 60 13 24 4693
627501.5961675424 1012682.9500201109 118.6 60 13 28 4693
627498.7030666968 1012680.4857933127 124.8 60 13 32 4693
627467.1238715196 1012669.4364645719 128.5 60 13 36 4693
627450.6181212656 1012655.9697878162 123.3 60 13 40 4693
627450.8653970971 1012654.2565796027 116.3 60 13 44 4693
627436.9625230005 1012648.0634695397 93.4 60 13 48 4693
627445.392630307 1012654.3605798255 113.3 60 13 52 4693
627449.128397714 1012654.4942592884 107.5 60 13 56 4693
627447.8282022397 1012655.5848204179 112.1 60 14 00 4693
627446.6901054317 1012650.7045311297 122.9 60 14 08 4693
627438.9466320513 1012649.5737650995 119.9 60 14 12 4693
627436.9223100399 1012646.9022397 141.5 60 14 16 4693
627451.8871215251 1012650.9203270923 137.6 60 14 20 4693
627448.6831355977 1012652.8562256815 124.2 60 14 24 4693
627447.7393071332 1012649.0713141956 134.1 60 14 28 4693
627431.3386933075 1012647.304453383 117.8 60 14 32 4693
627446.2893799497 1012652.2956057047 126.3 60 14 36 4693
627453.784033136 1012652.2091804781 124.9 60 14 40 4693
627454.3180244585 1012653.5931638983 137.6 60 14 44 4693
627453.3214739183 1012652.5283744258 122.3 60 14 48 4693
627444.1166100743 1012651.3597227724 123.8 60 14 52 4693
627442.3424983945 1012649.4741283834 119.3 60 14 56 4693
627447.698119795 1012655.03149626 107.8 60 15 00 4693
627438.6260227545 1012646.76397505 117.4 60 15 08 4693
627440.9810522532 1012662.7505160664 141.9 60 15 12 4693
627438.8947201385 1012669.0911402483 155.8 60 15 16 4693
627404.9153803687 1012621.9405028154 129.8 60 15 20 4693
627385.7955069336 1012577.3811303576 136.7 60 15 24 4693
627361.1483667094 1012601.0102993808 138.5 60 15 28 4693
627329.0714407127 1012648.9544204072 155.6 60 15 32 4693
627314.5276295085 1012705.3038681983 143.4 60 15 36 4693
627295.4606314345 1012681.8546144676 151.7 60 15 40 4693
627292.296233343 1012685.150797285 146.5 60 15 44 4693
627294.9776517901 1012685.1041388896 149.8 60 15 48 4693
627295.4320683368 1012683.9002696668 153.4 60 15 52 4693
627291.8166110964 1012683.9439212038 143.3 60 15 56 4693
627290.6621222323 1012684.1503084862 153.6 60 16 00 4693
627300.8135720736 1012684.8354161961 178.6 60 16 08 4693
627294.6980819236 1012690.0240901408 163.1 60 16 12 4693
627286.7044639679 1012691.5022579884 150.6 60 16 16 4693
627293.7037357343 1012688.2737104507 162.6 60 16 20 4693
627296.7960656927 1012680.0564444726 156.6 60 16 24 4693
627291.426264803 1012689.1399681313 153.4 60 16 28 4693
627279.4745418626 1012681.040146082 143.3 60 16 32 4693
627284.8904153012 1012688.3669783528 142.3 60 16 36 4693
627273.9796381665 1012715.3357187809 143.3 60 16 40 4693
627281.8736552082 1012755.0375649283 131.6 60 16 44 4693
627294.1264235051 1012792.4975975717 141.1 60 16 48 4693
627318.443325538 1012844.0734402997 165.2 60 16 52 4693
627318.4646254145 1012892.0545812469 153.2 60 16 56 4693
627304.1861276457 1012964.9920227863 153.2 60 17 00 4693
627287.2294766997 1013077.9290271795 145.4 60 17 08 4693
627274.7006300268 1013116.0059332512 126.8 60 17 12 4693
627283.9228179381 1013139.0585843512 126.6 60 17 16 4693
627286.056181833 1013135.1619472668 130.5 60 17 20 4693
627286.6242552564 1013132.7862863299 126.9 60 17 24 4693
627285.5852203273 1013131.2679811463 131.3 60 17 28 4693
627285.9217705117 1013132.5407459055 129.3 60 17 32 4693
627287.9046068926 1013127.6152212668 131.0 60 17 36 4693
627287.1678542481 1013124.3617686576 129.2 60 17 40 4693
627286.2843173395 1013125.741185119 128.6 60 17 44 4693
627283.1415361895 1013129.1590734362 128.2 60 17 48 4693
627281.6265028146 1013128.7229287771 127.2 60 17 52 4693
627279.9989129893 1013129.1157788141 127.7 60 17 56 4693
627281.1327651342 1013128.4891187844 133.6 60 18 00 4693
627218.6472201478 1012784.8346797911 135.1 61 06 08 4693
627235.2917639756 1012820.0529696204 154.7 61 06 12 4693
627250.0363805244 1012827.5978094636 146.5 61 06 16 4693
627309.0571622466 1012837.7953914488 150.1 61 06 20 4693
627398.6176725279 1012878.0699668854 151.5 61 06 24 4693
627420.347731325 1012917.340956642 148.6 61 06 28 4693
627425.9940547199 1012924.7459660595 158.4 61 06 32 4693
627461.1140557145 1012934.9773468461 140.2 61 06 36 4693
627487.3296159148 1012970.1602941772 123.3 61 06 40 4693
627533.9125137932 1012990.0824412007 114.8 61 06 44 4693
627629.2072875004 1012989.9255632017 121.7 61 06 48 4693
627658.8771587827 1013047.678342172 99.4 61 06 52 4693
627697.3157486813 1013057.8653825107 98.6 61 06 56 4693
627690.0898810069 1013076.8177540855 91.6 61 07 00 4693
627695.1919432473 1013109.8095186834 94.6 61 07 08 4693
627716.0546849226 1013135.1004758719 80.2 61 07 12 4693
627693.0428896442 1013189.9738700358 76.3 61 07 16 4693
627683.5032827834 1013214.2266576696 65.4 61 07 20 4693
627696.5704261207 1013251.1366162852 90.1 61 07 24 4693
627726.9031963684 1013345.0737755296 99.7 61 07 28 4693
627705.2389977855 1013404.60697575 100.5 61 07 32 4693
627701.7682323172 1013424.5003589973 99.9 61 07 36 4693
627650.4977082284 1013491.8002170626 82.8 61 07 40 4693
627634.7042217823 1013536.9105130598 73.0 61 07 44 4693
627630.1279549543 1013545.2667181318 76.5 61 07 48 4693
627628.8159544358 1013533.0100944455 80.4 61 07 52 4693
627634.3834630544 1013534.1560075192 76.8 61 07 56 4693
627626.7630643025 1013508.5871574786 80.2 61 08 00 4693
627609.396771396 1013438.4779461727 93.1 61 08 08 4693
627608.1617365361 1013429.6053547577 109.5 61 08 12 4693
627609.5123570847 1013429.9082856404 106.2 61 08 16 4693
627610.7567843315 1013435.8726250075 106.7 61 08 20 4693
627612.678984839 1013436.1221115063 100.1 61 08 24 4693
627612.124821665 1013434.1851527723 105.4 61 08 28 4693
627609.3682098433 1013433.7118093047 109.0 61 08 32 4693
627608.5911584585 1013436.1420835189 112.8 61 08 36 4693
627611.8188581218 1013433.6533754076 111.4 61 08 40 4693
627605.2359758237 1013430.4694964138 110.0 61 08 44 4693
627612.060544925 1013430.2703748571 107.9 61 08 48 4693
627641.3760360852 1013454.737138495 79.7 61 08 52 4693
627636.0168862927 1013535.3555603103 79.7 61 08 56 4693
627639.0934066733 1013535.4429062961 80.9 61 09 00 4693
627635.6327040815 1013538.627519629 81.7 61 09 08 4693
627626.6020297084 1013541.4292218921 83.4 61 09 12 4693
627626.6813998765 1013544.0723664364 85.0 61 09 16 4693
627626.1152508983 1013542.4449954616 93.8 61 09 20 4693
627621.2649671617 1013547.1843143565 85.9 61 09 24 4693
627620.7271888984 1013543.5776335791 103.2 61 09 28 4693
627624.3932138802 1013548.2670562447 87.5 61 09 32 4693
627621.3880364232 1013560.111641642 75.6 61 09 36 4693
627631.0163037027 1013579.8151225537 78.9 61 09 40 4693
627645.5120727561 1013609.8515512359 72.7 61 09 44 4693
627648.7985685833 1013619.7702374994 82.7 61 09 48 4693
627669.6764649523 1013633.4834137085 84.3 61 09 52 4693
627682.3088583737 1013645.0578518357 90.6 61 09 56 4693
627681.0620897994 1013646.6240739978 91.1 61 10 00 4693
627721.4104306031 1013670.916483569 82.8 61 10 08 4693
627712.5693000203 1013683.0739399304 93.6 61 10 12 4693
627724.4382666965 1013703.0500937101 92.6 61 10 16 4693
627731.541031607 1013698.3623039225 105.2 61 10 20 4693
627773.0410636024 1013702.8976491888 92.4 61 10 24 4693
627761.1839166104 1013720.0436083326 103.4 61 10 28 4693
627782.8704605143 1013731.7247789844 101.5 61 10 32 4693
627776.8869972387 1013767.4563118895 107.8 61 10 36 4693
627764.9614012807 1013788.782014507 111.1 61 10 40 4693
627768.7777946384 1013797.9283633691 113.5 61 10 44 4693
627768.068599268 1013799.7617164818 118.7 61 10 48 4693
627749.4995347259 1013829.8681917232 108.3 61 10 52 4693
627781.5571128081 1013886.3351145216 114.8 61 10 56 4693
627800.3574584508 1013917.1928042377 107.8 61 11 00 4693
627790.4586628163 1013957.3791460135 110.9 61 11 08 4693
627803.2269928049 1013967.6492244407 109.4 61 11 12 4693
627816.1437505108 1013989.7740915193 99.1 61 11 16 4693
627819.975784296 1014011.0512573569 97.7 61 11 20 4693
627847.9170932197 1014011.7720213091 99.1 61 11 24 4693
627854.113228527 1014012.1901743476 90.1 61 11 28 4693
627852.2645737395 1014012.9914317774 94.6 61 11 32 4693
627854.1635875094 1014013.6057767803 88.8 61 11 36 4693
627857.9932551894 1014015.2437199814 93.2 61 11 40 4693
627859.5404270904 1014015.923274797 95.7 61 11 44 4693
627861.0001898156 1014019.8425759588 96.9 61 11 48 4693
627860.5413685482 1014015.6168883315 103.5 61 11 52 4693
627861.4278114975 1014013.341785712 98.1 61 11 56 4693
627859.6699598986 1014016.6424720316 95.9 61 12 00 4693
627921.8521383326 1014010.3195653125 80.9 61 12 08 4693
627936.8905494857 1014015.189625388 77.0 61 12 12 4693
627942.7573250737 1014025.6917340204 81.7 61 12 16 4693
627946.5149321591 1014029.2203920925 80.2 61 12 20 4693
627948.9917268706 1014024.473424027 86.4 61 12 24 4693
627945.1984590346 1014035.3423270838 68.4 61 12 28 4693
627936.3027299973 1013989.7319216193 76.3 61 12 32 4693
627941.8697495372 1013987.6157397288 60.3 61 12 36 4693
627937.767760019 1013964.8890655257 70.3 61 12 40 4693
627939.3718093485 1013964.9716689949 71.5 61 12 44 4693
627940.7225956374 1013938.0826901174 73.8 61 12 48 4693
627945.3442805109 1013942.8526559405 66.8 61 12 52 4693
627947.8327379291 1013941.2904645863 74.0 61 12 56 4693
627942.7457345695 1013941.0859957522 73.2 61 13 00 4693
627945.9120872292 1013933.7868345928 88.2 61 13 08 4693
627944.5420225202 1013942.8832311776 61.5 61 13 12 4693
627943.1819929054 1013935.3150689114 80.7 61 13 16 4693
627942.8076719956 1013935.5350186843 86.3 61 13 20 4693
627945.3149494326 1013948.5143199383 64.8 61 13 24 4693
627942.8594057848 1013943.3090467346 70.3 61 13 28 4693
627947.29740447 1013947.1163610996 56.1 61 13 32 4693
627935.676983528 1013945.4531704119 65.1 61 13 36 4693
627929.9975048275 1013944.970330749 65.1 61 13 40 4693
627939.1550736334 1013943.6840802113 67.2 61 13 44 4693
627937.448643872 1013948.0686268095 68.8 61 13 48 4693
627931.9976733122 1013944.8883451634 64.8 61 13 52 4693
627930.032807051 1013940.8568235256 75.1 61 13 56 4693
627930.1968714832 1013944.4844191857 73.4 61 14 00 4693
627936.7233045421 1013948.0994513767 74.9 61 14 08 4693
627937.1855227477 1013951.274630023 75.4 61 14 12 4693
627940.6069152555 1013950.0472043493 82.7 61 14 16 4693
627942.6024621476 1013951.391702228 83.8 61 14 20 4693
627947.2630676781 1013950.9313023521 93.2 61 14 24 4693
627935.5686761119 1013944.9662621449 77.3 61 14 28 4693
627924.1117738154 1013950.4913842499 68.0 61 14 32 4693
627931.9503884298 1013945.916597389 66.4 61 14 36 4693
627928.2977388639 1013947.2980884096 62.2 61 14 40 4693
627930.9039148955 1013946.7093922283 76.6 61 14 44 4693
627933.0974050902 1013944.6154546379 76.7 61 14 48 4693
627932.7283411575 1013946.6047211413 74.8 61 14 52 4693
627933.3225366038 1013946.352309205 78.8 61 14 56 4693
627934.9065802045 1013945.8266508357 79.1 61 15 00 4693
627935.1856503957 1013947.8733075986 72.0 61 15 08 4693
627925.9779577524 1013940.8879209983 69.7 61 15 12 4693
627921.3117239834 1013929.516114544 73.2 61 15 16 4693
627921.6741359687 1013909.2256343964 69.2 61 15 20 4693
627928.4844825341 1013913.3944900504 78.8 61 15 24 4693
627932.3898762206 1013908.6189738082 81.1 61 15 28 4693
627926.7736359892 1013908.96569932 77.2 61 15 32 4693
627929.1569306743 1013909.3383373976 79.3 61 15 36 4693
627920.7471652123 1013913.8338687642 76.3 61 15 40 4693
627918.9239059342 1013903.4001541649 83.8 61 15 44 4693
627907.4202628058 1013882.6399761528 78.5 61 15 48 4693
627857.6031564949 1013860.8158124818 86.0 61 15 52 4693
627820.6239915027 1013858.3075638744 97.8 61 15 56 4693
627786.1229905335 1013867.6063791551 108.9 61 16 00 4693
627734.325404899 1013873.730889219 125.0 61 16 08 4693
627721.9691887974 1013878.7223706794 119.8 61 16 12 4693
627688.665698142 1013891.5084443537 135.7 61 16 16 4693
627649.7787970937 1013884.2944877169 121.5 61 16 20 4693
627647.4947295726 1013856.6197092352 129.5 61 16 24 4693
627646.66329886 1013841.8765590116 138.0 61 16 28 4693
627632.9635924854 1013823.9623776212 114.6 61 16 32 4693
627615.4935680222 1013775.8252631086 101.0 61 16 36 4693
627623.5254731221 1013762.437726015 108.9 61 16 40 4693
627618.2036566394 1013763.4821099138 100.9 61 16 44 4693
627592.5499629617 1013741.6811064909 101.2 61 16 48 4693
627581.8318027831 1013732.8221152743 99.6 61 16 52 4693
627575.7386410723 1013737.93339787 91.2 61 16 56 4693
627568.5509504954 1013745.1090125961 100.2 61 17 00 4693
627552.2587410832 1013709.91373211 97.5 61 17 08 4693
627541.3997220178 1013697.02914839 104.0 61 17 12 4693
627540.2406622712 1013695.2561089359 114.8 61 17 16 4693
627516.988985837 1013698.6422298242 101.3 61 17 20 4693
627514.4196348808 1013670.8006824211 100.4 61 17 24 4693
627509.5935090216 1013668.0648099693 100.6 61 17 28 4693
627506.4171454146 1013664.869822773 91.7 61 17 32 4693
627504.7268957233 1013660.8502747014 99.7 61 17 36 4693
627501.9609976606 1013653.0453828422 96.5 61 17 40 4693
627495.6090754875 1013656.6187660065 97.9 61 17 44 4693
627489.2665209494 1013640.2654749261 77.8 61 17 48 4693
627488.1371808903 1013632.6870283728 100.5 61 17 52 4693
627492.3174964557 1013631.240849447 99.9 61 17 56 4693
627482.0821732304 1013615.7596460477 93.6 61 18 00 4693
627438.5928675544 1013556.8012808693 106.4 62 06 08 4693
627439.9240755317 1013556.3079603474 109.3 62 06 12 4693
627437.9304214448 1013557.7722570597 105.1 62 06 16 4693
627437.5773998438 1013558.2023843293 107.3 62 06 20 4693
627438.2801257663 1013558.3705226467 111.8 62 06 24 4693
627441.6454816043 1013557.4856720878 99.2 62 06 28 4693
627494.2988912873 1013575.6913245448 98.2 62 06 32 4693
627593.4803549226 1013569.2992531058 86.5 62 06 36 4693
627636.5159316125 1013544.1483697813 73.2 62 06 40 4693
627632.3022059485 1013545.7271246309 72.3 62 06 44 4693
627633.4081467878 1013546.9360314173 74.9 62 06 48 4693
627625.9994721726 1013544.269209497 72.3 62 06 52 4693
627636.8341914569 1013530.6695622135 70.4 62 06 56 4693
627649.5839062391 1013533.1545962892 75.2 62 07 00 4693
627686.2220572095 1013495.0672151012 78.8 62 07 08 4693
627689.6648104507 1013494.0388789648 72.8 62 07 12 4693
627700.0761420925 1013438.0521348865 95.5 62 07 16 4693
627709.2491700522 1013377.6160283684 119.2 62 07 20 4693
627708.7490593287 1013375.9556953174 118.4 62 07 24 4693
627694.1101435486 1013349.391036046 92.7 62 07 28 4693
627699.3014062431 1013341.1584612108 103.6 62 07 32 4693
627697.1466372898 1013338.0662850087 127.6 62 07 36 4693
627702.4472683279 1013340.1955137413 122.7 62 07 40 4693
627691.9001845011 1013288.5642870213 111.2 62 07 44 4693
627669.8703940295 1013260.5934994472 92.8 62 07 48 4693
627686.0712156157 1013198.2781020055 72.2 62 07 52 4693
627695.0022324305 1013192.3355780295 76.4 62 07 56 4693
627695.3119130032 1013191.7173244582 81.8 62 08 00 4693
627714.9572938435 1013141.4442851287 73.6 62 08 08 4693
627729.1492311055 1013132.9311690342 78.9 62 08 12 4693
627735.1660074439 1013127.6869529733 80.4 62 08 16 4693
627743.1330323999 1013131.0190769958 69.3 62 08 20 4693
627743.3842300596 1013138.2961260993 61.9 62 08 24 4693
627739.6012446242 1013142.5855047004 77.0 62 08 28 4693
627745.323041759 1013143.6102859654 69.5 62 08 32 4693
627712.994921251 1013116.2143947888 81.1 62 08 36 4693
627713.2419315281 1013060.1726917509 89.2 62 08 40 4693
627708.9686365499 1013063.1666906066 90.3 62 08 44 4693
627713.5609977972 1013066.8528209964 89.9 62 08 48 4693
627711.7098039957 1013068.4281493962 97.3 62 08 52 4693
627715.9921221607 1013066.0423760752 90.7 62 08 56 4693
627717.1429400193 1013063.5690779063 84.5 62 09 00 4693
627714.4631865601 1013063.1070368029 82.8 62 09 08 4693
627715.4181032269 1013060.0470257954 94.5 62 09 12 4693
627713.3903252084 1013065.2599017267 88.8 62 09 16 4693
627681.3686722344 1013051.820371725 88.0 62 09 20 4693
627651.7236397372 1013051.0390205228 122.3 62 09 24 4693
627660.5144380481 1013054.495424438 113.6 62 09 28 4693
627651.5699883275 1013047.5773366612 100.6 62 09 32 4693
627656.888639422 1013050.9451199267 102.8 62 09 36 4693
627652.3558004336 1013052.644487659 105.2 62 09 40 4693
627654.5354930877 1013044.6233408602 94.9 62 09 44 4693
627669.3473562658 1013051.7151935401 103.8 62 09 48 4693
627673.3545402841 1013056.2619609769 95.2 62 09 52 4693
627672.6875930913 1013055.2203445483 96.9 62 09 56 4693
627674.3648610776 1013053.0583729227 98.1 62 10 00 4693
627673.4887965675 1013055.521501369 98.4 62 10 08 4693
627679.2761001021 1013049.8784433448 115.9 62 10 12 4693
627673.0710868742 1013055.564384593 99.8 62 10 16 4693
627699.767414899 1013050.6965901036 102.1 62 10 20 4693
627709.7052766766 1013052.8407962482 100.7 62 10 24 4693
627704.0947563275 1013064.9865898469 89.7 62 10 28 4693
627708.8937975625 1013076.1265533526 83.0 62 10 32 4693
627712.2767130993 1013076.6240404766 94.3 62 10 36 4693
627701.5658797424 1013089.2509698318 86.6 62 10 40 4693
627699.6651541301 1013085.7504663481 78.5 62 10 44 4693
627700.0063156958 1013082.1908573274 78.7 62 10 48 4693
627699.6359753008 1013084.5782124772 78.0 62 10 52 4693
627699.6880394509 1013082.068189845 75.5 62 10 56 4693
627699.7342445544 1013081.3716782294 79.7 62 11 00 4693
627700.4499322276 1013080.9316660798 81.8 62 11 08 4693
627701.0012403595 1013083.7532651575 77.2 62 11 12 4693
627705.3528664088 1013083.723092232 82.1 62 11 16 4693
627699.4049797079 1013081.2489752484 80.5 62 11 20 4693
627704.9331358951 1013080.9903830452 82.6 62 11 24 4693
627706.6632958547 1013082.8647935903 83.5 62 11 28 4693
627697.9522554511 1013085.3357823362 81.8 62 11 32 4693
627703.4167660038 1013084.3692653598 75.8 62 11 36 4693
627695.3791026983 1013085.8914328129 72.7 62 11 40 4693
627690.9603451208 1013082.8914680325 81.9 62 11 44 4693
627693.743138629 1013082.0710999 78.9 62 11 48 4693
627694.2011797905 1013086.5511139008 84.4 62 11 52 4693
627705.507360366 1013073.3179102469 86.7 62 11 56 4693
627703.4572595623 1013068.4346603648 92.5 62 12 00 4693
627700.933469473 1013063.9147979042 97.7 62 12 08 4693
627699.763512562 1013062.1085462727 96.6 62 12 12 4693
627698.7113284402 1013068.0654678949 101.5 62 12 16 4693
627694.5768006606 1013058.7190665829 85.2 62 12 20 4693
627699.0409653852 1013064.6716932966 95.5 62 12 24 4693
627699.3903560159 1013072.1702202016 86.9 62 12 28 4693
627703.2756801808 1013080.4210644198 76.8 62 12 32 4693
627724.8042540443 1013103.701599687 69.3 62 12 36 4693
627726.0026365964 1013113.7130622652 87.5 62 12 40 4693
627724.2441402632 1013107.0061647161 65.9 62 12 44 4693
627725.2995632577 1013110.2496016737 78.4 62 12 48 4693
627723.5296532977 1013137.6790544108 70.1 62 12 52 4693
627722.9220653342 1013138.6723209135 72.3 62 12 56 4693
627720.2577907322 1013140.2229048664 65.7 62 13 00 4693
627720.3196842935 1013141.4726713599 66.7 62 13 08 4693
627721.5300534413 1013137.573069652 75.3 62 13 12 4693
627720.6141604111 1013142.1592258076 70.1 62 13 16 4693
627719.6170400843 1013137.8765148823 76.5 62 13 20 4693
627712.9060006186 1013133.5311079391 78.5 62 13 24 4693
627718.8984031376 1013129.0277043267 94.8 62 13 28 4693
627724.0998264023 1013134.6620327659 84.1 62 13 32 4693
627725.3509344321 1013138.558530763 78.2 62 13 36 4693
627725.9954369423 1013139.7438313873 73.1 62 13 40 4693
627724.2674604531 1013137.1948818145 72.2 62 13 44 4693
627713.6312826496 1013133.522393419 80.0 62 13 48 4693
627728.0969180285 1013135.5264243308 88.1 62 13 52 4693
627725.39244084 1013135.9157764489 85.1 62 13 56 4693
627717.9861022326 1013135.902900964 77.0 62 14 00 4693
627726.7731961459 1013133.697558267 82.9 62 14 08 4693
627728.932550434 1013135.3743112707 86.0 62 14 12 4693
627726.1912838089 1013136.9467622872 82.3 62 14 16 4693
627721.6673836894 1013135.8816225264 79.7 62 14 20 4693
627744.408682798 1013147.720948088 111.0 62 14 24 4693
627730.3779327378 1013136.9602921627 83.8 62 14 28 4693
627724.7950014798 1013133.7685723116 77.1 62 14 32 4693
627725.8589283756 1013134.3802065698 70.5 62 14 36 4693
627756.9967476153 1013128.863323109 79.9 62 14 40 4693
627752.1252019901 1013146.9607635876 81.6 62 14 44 4693
627746.5320355969 1013143.5367868224 65.9 62 14 48 4693
627745.0005648627 1013148.1873018027 90.1 62 14 52 4693
627749.7679833286 1013145.3054857777 73.8 62 14 56 4693
627756.9333434156 1013141.6794697073 65.5 62 15 00 4693
627738.7970769961 1013143.2021598833 72.4 62 15 08 4693
627742.5953466351 1013161.382912869 67.5 62 15 12 4693
627759.2950957565 1013148.7311212231 85.4 62 15 16 4693
627748.9814322055 1013147.2712873176 62.5 62 15 20 4693
627748.7881412854 1013145.877340503 69.1 62 15 24 4693
627739.3705534735 1013149.3633812806 73.4 62 15 28 4693
627727.7532160787 1013146.671889249 57.5 62 15 32 4693
627743.0353056021 1013151.0560588284 73.1 62 15 36 4693
627734.1016832307 1013147.5991711398 52.3 62 15 40 4693
627747.0626049503 1013159.572763398 81.2 62 15 44 4693
627738.8674900929 1013152.0157020774 68.4 62 15 48 4693
627739.8008783613 1013145.4170263817 73.9 62 15 52 4693
627751.467935499 1013156.5239056998 93.5 62 15 56 4693
627741.099564895 1013151.5916498394 71.7 62 16 00 4693
627710.9830086001 1013160.7278453484 66.6 62 16 08 4693
627686.419434982 1013195.9349078013 90.4 62 16 12 4693
627678.0736294343 1013194.2049961899 78.3 62 16 16 4693
627684.4145389006 1013183.864032983 91.0 62 16 20 4693
627684.3695397531 1013194.3912078232 77.9 62 16 24 4693
627682.026859588 1013205.242702765 78.9 62 16 28 4693
627695.1350035376 1013219.262504752 72.4 62 16 32 4693
627704.091705254 1013269.9818242709 102.6 62 16 36 4693
627736.9409991609 1013333.2740420578 83.8 62 16 40 4693
627743.5973969613 1013368.1064977795 53.6 62 16 44 4693
627751.2263230261 1013367.2354542344 99.4 62 16 48 4693
627751.6405130139 1013364.881415269 87.2 62 16 52 4693
627763.0331028862 1013365.6923171087 87.9 62 16 56 4693
627751.4823122103 1013366.2299935763 97.3 62 17 00 4693
627749.8638899679 1013367.1868170619 89.2 62 17 08 4693
627750.6880061061 1013370.5953801705 94.1 62 17 12 4693
627749.1581939141 1013367.936487248 84.1 62 17 16 4693
627753.5767215578 1013367.5969127559 100.8 62 17 20 4693
627747.0701970648 1013367.9850274792 87.4 62 17 24 4693
627733.5233451627 1013414.9160955981 95.0 62 17 28 4693
627743.4376692787 1013417.5136291237 90.1 62 17 32 4693
627741.2587101143 1013432.103293633 79.4 62 17 36 4693
627732.7693973028 1013440.789641687 88.9 62 17 40 4693
627716.6083641094 1013432.9967216577 110.7 62 17 44 4693
627690.6022022387 1013424.9950620359 95.9 62 17 48 4693
627693.475415992 1013334.9802667387 129.3 62 17 52 4693
627671.7008520255 1013241.623697281 90.9 62 17 56 4693
627645.3814923171 1013136.6193498158 90.2 62 18 00 4693
627305.2502882133 1012955.2975008299 157.4 63 06 08 4693
627304.5551704625 1013000.5339276838 155.1 63 06 12 4693
627305.1200213385 1013063.9870960222 110.4 63 06 16 4693
627287.8534136986 1013068.4431912685 124.6 63 06 20 4693
627308.2199226739 1013138.7055734252 122.9 63 06 24 4693
627329.7956077451 1013198.5772625101 104.9 63 06 28 4693
627394.9456106209 1013260.4914102707 105.7 63 06 32 4693
627485.1661741686 1013296.7985928472 110.1 63 06 36 4693
627562.8985496117 1013382.2963759707 92.6 63 06 40 4693
627621.2867606571 1013434.9777536142 97.0 63 06 44 4693
627564.5788731887 1013508.519029587 79.3 63 06 48 4693
627629.5579264954 1013541.4387707638 76.0 63 06 52 4693
627636.667242073 1013534.7273491207 74.6 63 06 56 4693
627636.9431179322 1013537.7692205536 72.4 63 07 00 4693
627636.4345110502 1013545.5414285683 84.6 63 07 08 4693
627638.129836453 1013537.7841125659 79.8 63 07 12 4693
627637.4588403258 1013534.5972091836 69.1 63 07 16 4693
627635.0669125888 1013536.8895685517 77.4 63 07 20 4693
627641.2134510077 1013539.0768156389 83.0 63 07 24 4693
627635.7463397816 1013537.466785226 74.6 63 07 28 4693
627638.0662992317 1013537.0430139417 74.4 63 07 32 4693
627640.1680970851 1013536.1209230212 72.3 63 07 36 4693
627635.0446855886 1013536.9669035122 72.7 63 07 40 4693
627637.1938310538 1013534.9944449792 69.8 63 07 44 4693
627636.2331692481 1013533.0340560061 77.4 63 07 48 4693
627631.6439055866 1013535.208735758 62.9 63 07 52 4693
627646.9138718733 1013536.4965769437 71.0 63 07 56 4693
627633.435454192 1013535.0818261141 68.8 63 08 00 4693
627645.5000500394 1013525.1463881751 39.4 63 08 08 4693
627634.4179143754 1013537.09757598 66.3 63 08 12 4693
627634.6335251537 1013541.7869110289 79.2 63 08 16 4693
627635.7704535834 1013530.0026391 79.3 63 08 20 4693
627655.8440110735 1013472.9855290476 111.8 63 08 24 4693
627645.8185779108 1013467.3687934722 93.3 63 08 28 4693
627607.6194761299 1013420.5801873165 95.6 63 08 32 4693
627608.3610650814 1013429.1304998577 103.2 63 08 36 4693
627612.2251223413 1013430.3483131477 113.1 63 08 40 4693
627612.0296151275 1013429.6399627939 108.6 63 08 44 4693
627609.5058706193 1013438.7215769043 113.0 63 08 48 4693
627612.626388027 1013438.798003842 112.4 63 08 52 4693
627612.1741098653 1013439.3383904172 114.7 63 08 56 4693
627606.943873541 1013439.2330337265 116.0 63 09 00 4693
627614.014295186 1013437.7630242389 110.2 63 09 08 4693
627612.5909476335 1013453.1734302317 105.6 63 09 12 4693
627613.4918128735 1013487.2574302778 71.1 63 09 16 4693
627606.09891357 1013500.1162488849 87.6 63 09 20 4693
627612.075652449 1013527.6591853413 57.8 63 09 24 4693
627605.5062158629 1013530.5241329509 54.3 63 09 28 4693
627635.0600187342 1013505.0090163765 26.5 63 09 32 4693
627564.3297079223 1013565.2684308961 82.0 63 09 36 4693
627533.8159069364 1013605.6647016082 109.7 63 09 40 4693
627514.9795892591 1013643.7101301501 97.7 63 09 44 4693
627519.3412290594 1013674.5984419391 97.2 63 09 48 4693
627518.8095368692 1013675.9126402198 97.0 63 09 52 4693
627535.0032159943 1013680.3771033016 92.7 63 09 56 4693
627537.5714285894 1013684.742289125 99.1 63 10 00 4693
627532.8316274986 1013689.3050426181 91.3 63 10 08 4693
627532.0068177258 1013689.512483744 83.8 63 10 12 4693
627533.7254380959 1013688.1468270873 92.7 63 10 16 4693
627529.4518638437 1013691.2514160322 86.7 63 10 20 4693
627526.5584685991 1013699.1154469406 106.5 63 10 24 4693
627543.511552045 1013703.2063909121 115.0 63 10 28 4693
627544.7617678371 1013703.9734370775 114.0 63 10 32 4693
627543.4486376857 1013695.4655126638 104.1 63 10 36 4693
627536.5532785382 1013703.9911662434 111.6 63 10 40 4693
627514.347136435 1013672.8351399193 101.3 63 10 44 4693
627521.4832701837 1013668.014725393 99.4 63 10 48 4693
627517.1898061353 1013660.2601913225 98.8 63 10 52 4693
627519.0423526003 1013661.6594928183 99.3 63 10 56 4693
627510.0051341846 1013652.8833592638 105.9 63 11 00 4693
627509.5546392347 1013656.2767436397 91.3 63 11 08 4693
627512.5371434143 1013654.848816969 97.0 63 11 12 4693
627515.1665847629 1013657.2679717256 98.5 63 11 16 4693
627516.9955540329 1013655.7589150819 99.8 63 11 20 4693
627521.6083501189 1013649.691847052 100.1 63 11 24 4693
627516.4885927979 1013652.8158223934 98.3 63 11 28 4693
627517.9676102462 1013650.7859051418 97.8 63 11 32 4693
627517.5012416433 1013652.2883021287 103.0 63 11 36 4693
627517.9637551438 1013651.980168158 105.3 63 11 40 4693
627516.6570487667 1013658.5002326987 100.3 63 11 44 4693
627520.0973546827 1013658.2238274211 106.5 63 11 48 4693
627518.1974275762 1013657.8859511387 95.1 63 11 52 4693
627519.6955661366 1013656.7407441795 103.5 63 11 56 4693
627525.8010561225 1013661.426974573 101.2 63 12 00 4693
627509.5163250437 1013654.5294392463 93.6 63 12 08 4693
627509.8906811652 1013654.2984273776 98.2 63 12 12 4693
627512.0583284611 1013653.3986595337 99.0 63 12 16 4693
627511.4732647133 1013654.2261289675 95.4 63 12 20 4693
627512.8474554095 1013657.4374154182 100.3 63 12 24 4693
627514.6940054265 1013660.6944591311 100.1 63 12 28 4693
627514.0115148483 1013657.6623350321 97.4 63 12 32 4693
627514.6694641063 1013658.0846668866 97.8 63 12 36 4693
627518.7007593738 1013655.1451655889 111.6 63 12 40 4693
627515.3366884233 1013659.0378177844 95.1 63 12 44 4693
627521.3097227763 1013657.0998142383 88.3 63 12 48 4693
627519.5318996822 1013666.592988502 92.0 63 12 52 4693
627523.3953402704 1013661.1869881636 104.8 63 12 56 4693
627516.0364738961 1013666.924506339 91.7 63 13 00 4693
627514.814545616 1013667.6061645275 98.0 63 13 08 4693
627517.694905084 1013667.1841962646 92.9 63 13 12 4693
627517.9557418312 1013664.6748481557 95.3 63 13 16 4693
627518.8953980103 1013662.9307006515 102.2 63 13 20 4693
627517.9782600038 1013661.1031525496 102.9 63 13 24 4693
627520.6841973288 1013660.2493552536 97.0 63 13 28 4693
627519.328158783 1013661.6272411053 100.3 63 13 32 4693
627517.5944445229 1013664.2645319394 102.6 63 13 36 4693
627519.9969892611 1013662.0827825092 93.8 63 13 40 4693
627522.8592990551 1013660.4443646008 96.6 63 13 44 4693
627532.7201159021 1013683.0015617025 142.9 63 13 48 4693
627519.5306266617 1013660.179282774 102.1 63 13 52 4693
627523.1724009812 1013658.7645431836 99.7 63 13 56 4693
627520.0416211986 1013661.8728225668 101.5 63 14 00 4693
627524.8538088986 1013658.714680564 106.6 63 14 08 4693
627534.0876867698 1013661.0335186908 99.4 63 14 12 4693
627558.7480779039 1013619.545715263 95.5 63 14 16 4693
627595.8041329387 1013639.138714238 75.6 63 14 20 4693
627628.5355068053 1013548.3910187251 67.1 63 14 24 4693
627637.2027954867 1013549.2262612149 94.5 63 14 28 4693
627637.2275023637 1013544.9800268722 83.8 63 14 32 4693
627625.1568255096 1013543.1938508096 85.4 63 14 36 4693
627625.9550896586 1013544.4017634362 75.0 63 14 40 4693
627640.9666618315 1013533.83447424 68.8 63 14 44 4693
627645.1995999113 1013471.889560618 88.9 63 14 48 4693
627618.0216423995 1013435.4427063059 104.9 63 14 56 4693
627606.8758652599 1013419.4609168955 103.1 63 15 00 4693
627591.6124351223 1013399.1199992858 98.2 63 15 08 4693
627580.2338699625 1013387.1626195768 105.0 63 15 12 4693
627582.291790968 1013386.2182669216 89.7 63 15 16 4693
627570.8813448424 1013397.7482061242 91.6 63 15 20 4693
627569.5439110504 1013386.5530844129 101.6 63 15 24 4693
627568.9354520042 1013381.0110087056 93.2 63 15 28 4693
627568.1452507727 1013394.3224177416 121.3 63 15 32 4693
627589.1130903934 1013370.0180488785 96.7 63 15 36 4693
627589.1850186529 1013354.5479893815 101.1 63 15 40 4693
627589.4321995671 1013335.8495286395 120.6 63 15 44 4693
627624.991663475 1013301.7505727962 121.7 63 15 48 4693
627632.8162794823 1013270.9126639842 92.3 63 15 52 4693
627640.5260431769 1013245.0173590595 122.4 63 15 56 4693
627666.018766066 1013207.9002249723 137.9 63 16 00 4693
627667.1700959522 1013191.6595821605 78.9 63 16 08 4693
627695.370412832 1013194.017600329 81.6 63 16 12 4693
627699.0768456652 1013193.012229955 83.8 63 16 16 4693
627694.6414319879 1013191.7704486784 82.2 63 16 20 4693
627678.6609957076 1013165.4558097675 83.2 63 16 24 4693
627646.4700289785 1013139.8186585031 86.3 63 16 28 4693
627624.0775345098 1013122.0423165004 76.2 63 16 32 4693
627590.7284553869 1013094.3114988584 61.4 63 16 36 4693
627582.1529980706 1013099.0388030227 88.9 63 16 40 4693
627583.1745489789 1013095.757843168 93.7 63 16 44 4693
627572.0444948847 1013102.1024449429 91.4 63 16 48 4693
627585.598446975 1013103.9928977075 97.2 63 16 52 4693
627592.7680311012 1013105.8627451143 107.4 63 16 56 4693
627537.8707233276 1013071.1179348258 104.1 63 17 00 4693
627526.2596350552 1013063.0744050419 114.4 63 17 08 4693
627532.7173962293 1013060.7840967943 113.5 63 17 12 4693
627536.0272158652 1013005.6037825054 115.3 63 17 16 4693
627539.7913151099 1012993.5404783858 121.0 63 17 20 4693
627539.0434472149 1012993.7371112992 116.2 63 17 24 4693
627532.8385202135 1012995.9950612864 115.1 63 17 28 4693
627513.4874189035 1012975.5414936395 126.6 63 17 32 4693
627514.0416128683 1012950.2202275043 155.8 63 17 36 4693
627520.5626827503 1012948.7484189131 151.4 63 17 40 4693
627514.5551557727 1012954.5345438196 146.9 63 17 44 4693
627514.051246062 1012950.6404664547 147.2 63 17 48 4693
627452.4596169775 1012933.5229487653 140.9 63 17 52 4693
627449.3776403884 1012938.5223316156 159.2 63 17 56 4693
627426.3812132771 1012944.408513681 156.5 63 18 00 4693
627446.836889573 1012929.0262909819 144.9 64 06 08 4693
627450.0488844353 1012928.0082429331 148.3 64 06 12 4693
627448.8325418369 1012930.3596967249 150.0 64 06 16 4693
627445.746920717 1012933.0810995767 152.3 64 06 20 4693
627449.620122329 1012931.479103902 159.0 64 06 24 4693
627449.7602293928 1012932.3310292728 146.9 64 06 28 4693
627450.6181814739 1012925.2566115196 152.4 64 06 32 4693
627455.2088926638 1012939.6911742421 152.6 64 06 36 4693
627436.2697056889 1012924.3809977326 155.7 64 06 40 4693
627407.5144460925 1012889.5769432631 170.4 64 06 44 4693
627393.8377921525 1012877.9992735445 161.3 64 06 48 4693
627371.5945643568 1012837.6871909411 156.9 64 06 52 4693
627327.0667268072 1012848.3475200683 168.7 64 06 56 4693
627329.5945979599 1012851.6177993722 165.7 64 07 00 4693
627274.4552327325 1012919.1931888415 155.9 64 07 08 4693
627239.632476946 1012939.5053888258 154.6 64 07 12 4693
627229.1303310868 1012945.3766082621 156.6 64 07 16 4693
627230.3114072554 1012947.1497041855 155.6 64 07 20 4693
627224.5117316132 1012946.412262614 150.5 64 07 24 4693
627234.648208899 1012948.3137038281 155.0 64 07 28 4693
627238.516156539 1012951.7541618764 157.8 64 07 32 4693
627230.2376727781 1012952.988139388 155.1 64 07 36 4693
627207.5476739809 1012955.8676289248 144.0 64 07 40 4693
627177.9838488428 1012994.7301577316 142.6 64 07 44 4693
627118.6441327753 1012998.3543294428 143.2 64 07 48 4693
627087.1620436031 1013028.939293552 140.8 64 07 52 4693
627050.5131977517 1013056.7652639041 135.0 64 07 56 4693
627025.0318888054 1013069.9862448233 125.8 64 08 00 4693
626981.8000016335 1013183.6018458032 114.0 64 08 08 4693
626972.866929918 1013197.0640079305 115.1 64 08 12 4693
626931.69331048 1013231.0127594516 114.5 64 08 16 4693
626906.8838404196 1013243.8046909553 121.4 64 08 20 4693
626846.2069336085 1013301.2777766865 103.5 64 08 24 4693
626845.4836559332 1013314.3571638996 109.0 64 08 28 4693
626843.9765425356 1013311.4551092255 104.0 64 08 32 4693
