627727.4711397546 1012597.9454811043 104.3 3 01 20 4052
627722.2807921806 1012595.6618050886 107.2 3 01 24 4052
627722.4383244008 1012591.1174317034 125.9 3 01 28 4052
627716.1258858608 1012585.8112693288 156.1 3 01 32 4052
627723.9841283129 1012592.2392931604 116.7 3 01 36 4052
627719.9263825314 1012596.5277914563 117.4 3 01 40 4052
627727.2036597411 1012588.8990851062 126.1 3 01 44 4052
627719.5084044988 1012589.8473446533 126.1 3 01 48 4052
627728.0701502224 1012582.5987624058 152.2 3 01 52 4052
627724.5552093184 1012595.7465577384 127.3 3 01 56 4052
627733.3630780512 1012563.3305182775 123.3 3 02 00 4052
627718.9865881203 1012588.0984783993 121.4 3 02 44 4052
627727.0542222313 1012584.132558061 104.7 3 02 48 4052
627719.1077828282 1012577.7927138042 90.6 3 03 00 4052
627721.3212930958 1012579.7239733583 90.9 3 03 24 4052
627797.4883309994 1012599.1005730854 148.5 3 03 28 4052
627735.1212137464 1012590.5723166239 100.6 3 03 32 4052
627782.54816513 1012618.0611847449 131.5 3 03 36 4052
627812.2850626807 1012634.7223366876 136.8 3 03 40 4052
627778.0738077135 1012622.0497624229 94.6 3 03 44 4052
627806.2546509998 1012627.1612143524 139.2 3 03 48 4052
627787.7183357432 1012629.9874762397 110.0 3 03 52 4052
627830.4824735529 1012638.1538819754 167.5 3 03 56 4052
627807.4925474443 1012641.9499093391 145.8 3 04 00 4052
627808.9123440126 1012641.2578372604 138.2 3 04 08 4052
627824.1300271429 1012638.4319163356 126.8 3 04 12 4052
627816.2025837877 1012639.8217300666 160.9 3 04 16 4052
627817.8657766697 1012638.6217718928 200.4 3 04 20 4052
627829.0781606756 1012627.2571025048 138.3 3 04 24 4052
627806.2036173587 1012636.1512934174 130.2 3 04 28 4052
627818.9530524659 1012638.8132742216 144.5 3 04 32 4052
627783.5178020407 1012627.4526532601 147.2 3 04 37 4052
627804.7042526394 1012644.4621467206 119.3 3 04 40 4052
627809.3956801617 1012614.1117374433 152.2 3 04 44 4052
627773.1100644431 1012617.6547122438 208.0 3 04 48 4052
627754.0497837479 1012629.6022369189 103.0 3 04 52 4052
627727.2817820697 1012632.7557928055 106.9 3 04 56 4052
627721.4846074792 1012638.0339018761 129.6 3 05 00 4052
627698.9690316676 1012654.880089269 127.7 3 05 08 4052
627663.3288455633 1012693.3799156266 123.7 3 18 20 4052
627648.9175960819 1012691.4977447287 129.4 3 18 24 4052
627633.6711900397 1012723.6607886272 103.8 3 18 28 4052
627647.2185099969 1012754.8773205935 108.6 3 18 36 4052
627643.9811345506 1012733.1155756748 100.0 3 18 40 4052
627586.7448505417 1012697.6997280461 120.6 3 18 44 4052
627587.8786040623 1012724.3534153298 136.8 3 18 48 4052
627573.1459108175 1012736.956348594 134.1 3 18 52 4052
627543.1860109551 1012738.330423323 109.4 3 18 56 4052
627578.6504591703 1012726.9997001267 150.5 3 19 00 4052
627561.1987133106 1012741.0977660987 125.4 3 19 08 4052
627571.6624738813 1012740.3463999754 137.4 3 19 12 4052
627565.031338589 1012745.2679775706 130.5 3 19 16 4052
627558.4806187996 1012738.8884347907 135.0 3 19 28 4052
627547.6552327502 1012742.7349064542 104.6 3 19 32 4052
627554.5259154227 1012765.7468655196 125.3 3 19 36 4052
627558.8079215356 1012729.401638825 87.9 3 19 40 4052
627550.448073941 1012749.024917813 128.0 3 19 44 4052
627552.4205772076 1012747.3172751425 115.5 3 19 48 4052
627547.0081426585 1012732.1280992285 129.9 3 19 52 4052
627535.2723558214 1012718.4224304747 157.2 3 19 56 4052
627532.5269522236 1012704.2370895232 168.6 3 20 00 4052
627544.3171372539 1012697.673431665 146.0 3 20 12 4052
627518.1391156113 1012681.4662897831 144.6 3 20 16 4052
627557.1150436194 1012637.6139303314 113.1 3 20 20 4052
627554.8247082683 1012625.4315724372 103.8 3 20 24 4052
627563.6881394251 1012620.0306354911 112.5 3 20 28 4052
627566.8753363021 1012630.114847994 132.6 3 20 32 4052
627567.6115737997 1012616.4936412654 119.6 3 20 36 4052
627560.6213284616 1012627.1311020838 116.3 3 21 00 4052
627612.3293196686 1012604.9826812595 173.5 3 21 28 4052
627578.2615355803 1012626.1596059015 140.5 3 21 32 4052
627572.1613732144 1012633.3940410073 123.0 3 21 36 4052
627582.2401642321 1012622.5453843762 123.9 3 21 40 4052
627580.6359179557 1012619.1011387147 149.6 3 21 44 4052
627587.0164390428 1012616.932220096 98.2 3 21 48 4052
627592.1273344534 1012623.406642423 145.1 3 21 52 4052
627560.1377761207 1012562.4175312157 195.7 3 21 56 4052
627574.8887345953 1012585.0457585021 184.9 3 22 00 4052
627589.8961170064 1012671.2367970808 110.6 3 22 12 4052
627566.9032571464 1012686.179516623 144.6 3 22 16 4052
627533.7759035252 1012725.8486479714 117.9 3 22 20 4052
627551.007324164 1012759.6093257662 96.5 3 22 24 4052
627548.2792424512 1012760.4962314403 118.4 3 22 28 4052
627582.2690850148 1012749.8131849674 134.2 3 22 36 4052
627617.5911337894 1012751.9618665037 120.7 3 22 40 4052
627640.0605935714 1012756.1811854012 110.0 3 22 44 4052
627643.6448803579 1012748.7727675498 79.8 3 22 48 4052
627640.0479085057 1012766.9185648729 107.0 3 22 52 4052
627665.7962807902 1012793.6406737765 129.7 3 22 56 4052
627730.2609621455 1012737.8395606285 118.6 3 23 01 4052
627755.6838976422 1012708.8278098856 60.9 3 23 04 4052
627749.8453772336 1012730.3059104439 91.7 3 23 05 4052
627771.1062700115 1012748.0675840207 135.0 3 23 08 4052
627765.8894107993 1012743.7933538072 129.7 3 23 16 4052
627775.8344440052 1012747.1429239922 134.4 3 23 20 4052
627783.5309174117 1012773.0106012493 150.3 3 23 24 4052
627811.4071377552 1012749.9450181655 165.9 3 23 28 4052
627837.131565874 1012743.2606163902 155.7 3 23 32 4052
627840.7429217739 1012727.4923660196 136.5 3 23 36 4052
627839.906373958 1012687.1386093784 106.7 3 23 40 4052
627811.9876849517 1012672.3300111529 150.4 3 23 44 4052
627787.6335006405 1012642.637680009 153.6 3 23 48 4052
627807.3878590484 1012643.7409849307 151.7 3 23 52 4052
627812.9114839316 1012648.303721702 182.1 3 23 56 4052
627806.4688286285 1012639.093608045 135.9 4 00 00 4052
627806.6357181463 1012628.2571989185 107.0 4 00 08 4052
627799.2443279242 1012623.5889042387 182.1 4 00 12 4052
627821.5529107145 1012616.4068864813 172.4 4 00 16 4052
627836.4697393292 1012584.276000771 154.6 4 00 20 4052
627853.622711843 1012543.6818336173 128.1 4 00 24 4052
627819.687323271 1012510.2319344574 147.6 4 00 28 4052
627796.5855165827 1012484.0159062268 152.0 4 00 32 4052
627791.9287110632 1012452.6400611483 158.2 4 00 36 4052
627800.1112346028 1012447.1374454933 125.3 4 00 40 4052
627810.5858949472 1012446.4414578766 121.4 4 00 44 4052
627806.5084895764 1012453.4059491192 122.8 4 00 48 4052
627799.087780901 1012454.3993163703 151.5 4 00 52 4052
627789.6935755464 1012450.5981472775 160.5 4 00 56 4052
627810.4068054314 1012450.8530649687 132.6 4 01 00 4052
627804.3815461989 1012455.290012853 91.6 4 01 08 4052
627800.1036893255 1012435.8692076147 148.2 4 01 12 4052
627797.3811558898 1012441.831789648 171.5 4 01 16 4052
627803.2590812673 1012448.983263286 144.3 4 01 20 4052
627804.7444550915 1012434.8005084542 171.0 4 01 28 4052
627805.4232979699 1012449.1671864099 123.0 4 01 32 4052
627803.396234902 1012447.3471062586 143.6 4 01 36 4052
627800.8461768747 1012444.1430726163 151.0 4 01 40 4052
627804.1908044297 1012449.7050511314 128.3 4 01 44 4052
627811.9970272776 1012417.8276298494 161.7 4 01 49 4052
627798.4342755763 1012445.7939956192 142.0 4 01 52 4052
627797.2639987489 1012447.4821049644 145.3 4 01 56 4052
627802.3191230759 1012454.2107117968 137.8 4 02 00 4052
627787.0057614692 1012456.0189945742 138.6 4 02 08 4052
627796.287427075 1012447.036625126 154.3 4 02 16 4052
627798.0500647133 1012452.4718522286 144.9 4 02 20 4052
627841.0782733964 1012484.3919201648 149.1 4 02 24 4052
627834.4680128146 1012499.829792758 157.7 4 02 28 4052
627867.4729193486 1012528.7760446763 131.9 4 02 32 4052
627865.5762395104 1012530.8156631126 157.6 4 02 36 4052
627904.7471148846 1012535.5867366104 62.6 4 02 40 4052
627874.8741040883 1012577.9975185506 117.4 4 02 44 4052
627914.5196130518 1012605.8816018112 149.9 4 02 52 4052
627881.139191746 1012601.3393382664 127.0 4 02 56 4052
627838.0321137483 1012610.8647517794 108.1 4 03 04 4052
627850.1053092108 1012615.3602023309 127.5 4 03 08 4052
627844.0192114512 1012618.2266933088 142.5 4 03 12 4052
627821.2333906122 1012626.8668268701 143.9 4 03 16 4052
627803.3641364933 1012617.1000498544 157.3 4 03 20 4052
627821.492386403 1012624.9324945762 131.1 4 03 24 4052
627808.1880039901 1012630.7724070848 139.4 4 03 28 4052
627800.4624841557 1012634.286033935 116.8 4 03 32 4052
627780.4901837423 1012622.4114299484 78.7 4 03 36 4052
627809.8023425853 1012637.8879900185 118.1 4 03 40 4052
627746.1897098286 1012620.3433237242 122.5 4 03 48 4052
627723.1933829613 1012629.5246780941 93.8 4 03 52 4052
627742.8588220628 1012634.3431869587 91.9 4 03 56 4052
627706.3686727583 1012622.9681726171 88.7 4 04 00 4052
627725.3461129109 1012616.2508438318 114.4 4 04 08 4052
627721.6425083043 1012619.7664180244 116.1 4 04 12 4052
627714.6245601495 1012621.9553733662 170.9 4 04 16 4052
627714.3057579558 1012628.7993122117 106.8 4 04 20 4052
627675.1578128013 1012654.394051348 115.8 4 04 24 4052
627642.9668002427 1012683.0964909791 101.3 4 04 28 4052
627668.0338614588 1012679.207556402 120.4 4 04 32 4052
627652.7615808459 1012647.8969863688 151.9 4 18 20 4052
627531.0479408344 1012573.3707533677 92.5 4 18 29 4052
627535.1733861566 1012571.9354463697 79.4 4 18 32 4052
627522.368663054 1012572.7788017748 102.9 4 18 36 4052
627518.249481115 1012565.4561150013 105.2 4 18 40 4052
627510.0490993013 1012562.8863107169 112.3 4 18 44 4052
627526.6129457322 1012568.5682939385 83.0 4 18 48 4052
627516.2238106538 1012566.6106837561 110.9 4 19 00 4052
627530.4643416292 1012583.9625316537 81.6 4 19 08 4052
627543.4795022383 1012538.3124331887 167.1 4 19 12 4052
627513.0915300647 1012570.1612921152 92.7 4 19 16 4052
627516.1569710559 1012577.1156632135 85.9 4 19 21 4052
627515.045607035 1012557.1300931036 110.3 4 19 24 4052
627514.2321980884 1012560.6107718042 93.0 4 19 28 4052
627529.8550270591 1012554.8224719967 128.1 4 20 00 4052
627537.6132215114 1012558.2091537307 146.8 4 20 17 4052
627521.5593419301 1012568.1760223489 92.0 4 20 20 4052
627524.4886082058 1012559.4274527895 115.7 4 20 24 4052
627525.6741194953 1012566.6411570372 113.7 4 21 00 4052
627498.2638558598 1012574.7247120677 164.8 4 21 20 4052
627486.2623006258 1012558.220511248 127.2 4 21 29 4052
627473.4049785554 1012544.6992436252 104.2 4 21 36 4052
627458.431940037 1012515.9441621782 59.3 4 21 40 4052
627470.9346515969 1012544.0277951864 129.5 4 21 52 4052
627378.7231716528 1012606.6954760934 328.9 4 21 56 4052
627481.7889620501 1012534.6302246797 118.4 4 22 00 4052
627476.2600581844 1012535.0989590442 113.5 4 22 08 4052
627480.7686846617 1012534.1072052127 110.7 4 22 44 4052
627487.9694004753 1012529.7624680792 119.9 4 22 48 4052
627510.1058987181 1012514.5957730107 128.6 4 22 52 4052
627529.8761673117 1012544.8591917584 111.0 4 22 56 4052
627533.625977318 1012574.7170974269 102.8 4 23 00 4052
627559.8122098998 1012554.3330089137 163.4 4 23 08 4052
627586.6024329847 1012581.766117902 121.4 4 23 12 4052
627587.0227887994 1012594.5285245018 132.1 4 23 16 4052
627644.551133591 1012590.578441266 125.9 4 23 20 4052
627662.6008773905 1012524.0226806706 161.3 4 23 24 4052
627739.9069671854 1012507.1875257333 142.8 4 23 29 4052
627747.1014158621 1012470.7742987502 146.7 4 23 33 4052
627717.8763940914 1012486.1170300427 221.0 4 23 36 4052
627712.701752168 1012461.9494153971 133.6 4 23 40 4052
627712.80520392 1012453.7335764113 128.2 4 23 44 4052
627702.6044566438 1012451.2789136462 141.0 4 23 48 4052
627713.5418883661 1012463.8098901612 128.8 4 23 52 4052
627713.1622362352 1012438.452426349 99.9 4 23 56 4052
627696.8704056853 1012317.8664745587 106.0 5 00 08 4052
627666.8120215524 1012284.9600567427 102.5 5 00 16 4052
627670.4888591351 1012276.1254402788 118.9 5 00 24 4052
627640.6132709505 1012213.7940291105 125.6 5 00 28 4052
627702.9390783829 1012337.4257380974 92.3 5 00 44 4052
627702.4311462075 1012365.4121630661 49.6 5 00 48 4052
627736.6098106273 1012395.058727449 66.4 5 00 52 4052
627746.0255014675 1012412.6272944426 73.3 5 00 56 4052
627760.8788451105 1012457.9803385108 -11.6 5 01 00 4052
627791.2914916282 1012432.191558518 216.2 5 01 08 4052
627801.7098401773 1012442.1222293094 165.2 5 01 12 4052
627801.2063409847 1012444.9072459553 135.2 5 01 16 4052
627802.8857629396 1012438.686956997 145.5 5 01 20 4052
627796.9498654326 1012452.8774473099 128.9 5 01 24 4052
627807.900991929 1012461.1621838813 95.8 5 01 28 4052
627790.9228053133 1012491.8820407913 69.6 5 01 32 4052
627726.9031487418 1012501.6164729671 110.3 5 01 36 4052
627729.1826811347 1012510.3265653525 143.2 5 01 40 4052
627700.9175511267 1012490.4523366594 115.3 5 01 44 4052
627696.1580733204 1012470.4328555561 147.0 5 01 48 4052
627703.4517149355 1012444.1270547074 148.6 5 01 52 4052
627689.2214064593 1012491.6862550646 196.5 5 01 56 4052
627709.2758458649 1012467.9429047083 130.7 5 02 00 4052
627709.3050805951 1012462.2923067907 124.1 5 02 32 4052
627677.1826561077 1012449.2727296625 53.6 5 03 00 4052
627764.9293273619 1012408.3204013319 189.5 5 03 36 4052
627730.7804234722 1012447.7317810105 166.1 5 03 40 4052
627724.5750029047 1012463.7238797287 76.3 5 03 45 4052
627788.8532341638 1012486.2136017712 113.6 5 03 49 4052
627780.9661812057 1012488.6983095043 105.1 5 03 52 4052
627796.2909165997 1012500.3698983424 122.1 5 03 56 4052
627842.9342319674 1012525.5451516141 144.2 5 04 00 4052
627832.5568101554 1012574.3552841977 135.8 5 04 08 4052
627820.7547633189 1012628.7562167903 129.0 5 04 12 4052
627819.8419843336 1012628.974428593 129.9 5 04 13 4052
627791.7999941609 1012645.5041369864 103.0 5 04 16 4052
627724.8342365557 1012587.6086917807 -190.4 5 04 20 4052
627796.9141083499 1012644.1715750414 119.7 5 04 24 4052
627800.6911201606 1012638.3450994232 110.9 5 04 28 4052
627827.8139804031 1012640.9982485676 158.2 5 04 32 4052
627800.7818175075 1012637.482859924 128.3 5 04 36 4052
627791.6427572707 1012639.753411519 111.9 5 04 40 4052
627848.5733785038 1012637.1397305649 189.5 5 04 44 4052
627796.5640783762 1012636.8720909419 94.3 5 04 49 4052
627758.5134971538 1012635.7096760498 125.0 5 04 52 4052
627725.071965768 1012636.4862955773 101.6 5 04 56 4052
627714.7376505361 1012624.366406018 137.4 5 05 00 4052
627702.2899066525 1012606.5447700353 143.9 5 05 24 4052
627716.8963004334 1012643.2827416498 83.2 5 05 28 4052
627680.3976903142 1012620.9159662493 127.3 5 05 33 4052
627707.7665340186 1012642.6782339668 110.2 5 05 36 4052
627664.0433688633 1012638.8436447114 135.8 5 05 40 4052
627670.6478122352 1012696.6546294758 127.6 5 18 01 4052
627668.7504759177 1012681.8859317802 192.3 5 18 05 4052
627670.0898046241 1012685.6942445866 155.1 5 18 08 4052
627759.2941817068 1012717.18834745 119.7 5 18 12 4052
627672.0358526666 1012664.9555207882 159.9 5 18 16 4052
627534.1811858513 1012569.5215806441 115.8 5 18 29 4052
627521.9323464187 1012564.9593179962 82.6 5 18 32 4052
627513.4145819361 1012565.3962927248 79.7 5 18 36 4052
627504.9310319201 1012565.4463460916 97.8 5 18 40 4052
627483.9679697446 1012543.8597030104 103.8 5 18 44 4052
627494.4592721477 1012537.9884989887 116.3 5 18 48 4052
627476.5471093808 1012531.2737822846 136.0 5 18 52 4052
627517.43026413 1012536.6581812813 105.2 5 18 56 4052
627469.9948780318 1012515.1188976767 47.5 5 19 00 4052
627478.8479366108 1012533.3932955064 89.0 5 19 12 4052
627494.5518162479 1012522.9166084355 69.1 5 19 16 4052
627499.0764296557 1012551.0519412052 113.9 5 19 20 4052
627443.5390547656 1012571.4299319005 82.6 5 19 24 4052
627465.30984049 1012564.0248229392 82.6 5 19 28 4052
627428.9526316003 1012555.6914884389 135.3 5 19 33 4052
627431.3017323057 1012566.7018642239 112.3 5 19 37 4052
627429.3511619514 1012558.1919024673 119.5 5 19 40 4052
627404.2779736223 1012570.7947546837 123.9 5 19 44 4052
627329.4372585765 1012569.470022192 116.7 5 19 48 4052
627315.392531147 1012590.258251116 139.3 5 19 52 4052
627284.6617767939 1012605.7733522997 130.6 5 19 56 4052
627278.463627067 1012612.7421165395 117.0 5 20 00 4052
627281.2764876927 1012612.8285767538 110.9 5 20 08 4052
627291.7180303672 1012615.5714186085 149.4 5 20 12 4052
627282.218259171 1012620.6717951501 117.4 5 20 16 4052
627282.9332558523 1012613.619033903 131.9 5 20 20 4052
627297.1307761446 1012613.6315599506 195.9 5 20 24 4052
627285.6952496303 1012605.610807408 204.5 5 20 29 4052
627288.1496896411 1012614.6310527482 166.8 5 20 52 4052
627293.0987025546 1012613.3753025829 178.0 5 20 56 4052
627292.0052921177 1012594.6062005743 134.6 5 21 00 4052
627283.3252639478 1012611.3202125564 159.4 5 21 08 4052
627269.1437145581 1012609.7596101775 181.2 5 21 17 4052
627295.9175952196 1012594.5192711843 139.0 5 21 20 4052
627275.4754458033 1012626.1570221438 159.0 5 22 09 4052
627293.499849008 1012611.6515314736 144.9 5 22 12 4052
627311.7099351643 1012607.7402981551 172.5 5 22 16 4052
627294.418639571 1012609.5645096106 166.6 5 22 20 4052
627286.5580475928 1012634.574727606 135.6 5 22 24 4052
627315.9744343162 1012600.6547319087 184.0 5 22 28 4052
627287.2717674504 1012614.2633098203 162.3 5 22 32 4052
627282.5782188834 1012607.8455671992 162.7 5 22 36 4052
627288.6160144415 1012602.8999181166 184.4 5 23 05 4052
627286.339723089 1012599.9843130241 163.3 5 23 08 4052
627258.6926891864 1012582.6447118211 221.7 5 23 12 4052
627330.8980168157 1012586.7695835504 179.0 5 23 16 4052
627336.5665059794 1012546.3594456636 154.0 5 23 20 4052
627450.1058154979 1012494.4203882876 149.6 5 23 25 4052
627476.1965108532 1012510.4944855539 126.0 5 23 28 4052
627495.7592498596 1012533.5583921844 95.4 5 23 32 4052
627508.4008816364 1012556.0360327436 215.1 5 23 36 4052
627539.0655007751 1012571.2955705174 151.2 5 23 44 4052
627524.7805482033 1012594.9801867115 150.6 5 23 48 4052
627526.9963642366 1012630.2737312678 144.3 5 23 52 4052
627539.4835377347 1012629.0754962903 157.8 5 23 56 4052
627531.043287178 1012636.1475760099 155.0 6 00 00 4052
627538.540544067 1012662.5121529233 117.2 6 00 08 4052
627534.2609604984 1012677.6700648776 134.5 6 00 12 4052
627559.1348205673 1012692.7893167109 80.3 6 00 16 4052
627558.6774007274 1012698.3279502979 117.9 6 00 20 4052
627529.342069455 1012690.0282155072 158.1 6 00 24 4052
627529.117881382 1012698.210487294 168.9 6 00 28 4052
627533.7460872486 1012701.0231141505 92.4 6 00 32 4052
627521.9054242584 1012709.6102444974 109.7 6 00 36 4052
627535.0525970147 1012697.9752921308 163.6 6 00 40 4052
627549.4017666938 1012702.0688412981 138.7 6 00 44 4052
627547.534977547 1012708.4765186424 152.5 6 00 48 4052
627550.9876386706 1012707.8020537603 118.4 6 01 00 4052
627542.0104857952 1012710.9910038933 134.6 6 01 05 4052
627555.1350326658 1012750.6545207772 126.0 6 01 16 4052
627558.2585669603 1012756.6249148009 75.8 6 01 20 4052
627575.4759023841 1012753.8717058735 97.3 6 01 25 4052
627589.1088391346 1012721.1063026408 125.6 6 01 28 4052
627595.2312151189 1012724.0122238767 105.8 6 01 32 4052
627595.9380449984 1012746.7499661183 85.5 6 01 36 4052
627614.2754623649 1012764.6679851218 84.2 6 01 40 4052
627635.5973022832 1012753.3469603824 107.3 6 01 44 4052
627636.8144402874 1012754.1581311133 111.4 6 01 45 4052
627676.5232413244 1012748.812572894 128.2 6 01 48 4052
627690.929566567 1012755.6155985732 113.1 6 01 52 4052
627690.23614248 1012742.3546886296 102.9 6 02 00 4052
627835.6022069433 1012743.8528098468 103.0 6 02 32 4052
627853.9005893135 1012668.4624708783 123.7 6 02 44 4052
627797.0698650224 1012619.7778869165 74.8 6 02 52 4052
627779.488832874 1012619.4335627671 99.0 6 02 56 4052
627770.4333014115 1012619.6586392921 90.2 6 03 00 4052
627790.5399003433 1012630.7817201305 110.1 6 03 08 4052
627785.049452497 1012632.9534833292 113.8 6 03 16 4052
627778.3887505983 1012633.4074587355 93.3 6 03 20 4052
627783.29404417 1012632.0852782433 94.8 6 03 24 4052
627792.7749170873 1012639.6575472992 137.0 6 03 32 4052
627780.2487409018 1012639.3184996102 166.9 6 03 36 4052
627725.0807521269 1012633.766029434 108.1 6 03 44 4052
627727.1413339848 1012628.6085487071 120.5 6 03 48 4052
627713.9148397138 1012617.1428045314 101.7 6 03 52 4052
627703.3956671914 1012618.0266558508 109.7 6 03 56 4052
627728.0796743869 1012613.6720758516 85.7 6 04 00 4052
627734.0071247271 1012595.2794720167 91.1 6 04 09 4052
627726.9506810777 1012595.7764109739 142.4 6 04 12 4052
627741.3149164496 1012595.2146124289 103.7 6 04 16 4052
627722.9142327491 1012590.0684485615 105.5 6 04 20 4052
627719.7631206752 1012585.8340743323 102.4 6 04 24 4052
627703.8949364028 1012582.5206870403 118.8 6 04 28 4052
627660.0537552283 1012577.7789651564 124.6 6 04 32 4052
627634.7839458252 1012583.1822186415 114.5 6 04 36 4052
627649.3649107432 1012590.3728172885 143.1 6 04 40 4052
627640.7626676438 1012586.3420171709 114.7 6 04 44 4052
627648.7368855223 1012584.0787284506 76.4 6 04 48 4052
627640.7273186028 1012580.2710037035 121.4 6 04 52 4052
627640.0076628567 1012609.1745661823 166.7 6 04 56 4052
627667.6772322363 1012592.2565193505 159.1 6 05 00 4052
627663.9420719738 1012677.0269568512 129.1 6 18 44 4052
627662.1509486837 1012677.010116049 124.3 6 18 45 4052
627672.9828271503 1012701.7931301374 71.8 6 18 48 4052
627655.5913729524 1012656.3545140802 137.1 6 18 52 4052
627668.2474774101 1012640.2726551567 109.2 6 18 56 4052
627639.0503132726 1012589.1563069265 83.2 6 19 00 4052
627573.9701240334 1012638.1659183817 109.2 6 19 08 4052
627536.2879422463 1012672.7004569307 129.5 6 19 12 4052
627545.5693847414 1012748.9207150514 102.2 6 19 16 4052
627543.4064266961 1012738.1320884842 99.8 6 19 20 4052
627558.2662971381 1012720.1663760552 148.9 6 19 24 4052
627581.2949518047 1012724.7744959845 190.9 6 19 28 4052
627560.7689408112 1012738.0664594949 158.2 6 19 32 4052
627549.8501120333 1012736.8148440729 121.4 6 19 36 4052
627564.2252737351 1012732.8471277297 151.5 6 19 40 4052
627560.6765015201 1012742.8764358686 155.1 6 19 44 4052
627478.1051610438 1012777.4320899729 52.8 6 19 48 4052
627561.9668858494 1012738.0150337417 148.1 6 19 52 4052
627559.4599663363 1012735.0654908133 151.9 6 19 57 4052
627578.4045318413 1012738.5103919673 154.6 6 20 00 4052
627569.4721222385 1012741.4562014166 156.1 6 20 08 4052
627553.4078490547 1012754.6630399951 137.2 6 20 12 4052
627543.7083002728 1012746.7473236385 145.3 6 20 16 4052
627548.9685293504 1012754.6155446477 125.5 6 20 20 4052
627545.3054108213 1012755.8090610955 146.8 6 20 24 4052
627551.4499330027 1012745.036174836 150.7 6 20 28 4052
627558.0375794959 1012753.5942817783 109.9 6 20 32 4052
627562.9639671653 1012742.3198524219 132.0 6 20 36 4052
627551.4045140729 1012742.0835150293 109.0 6 20 40 4052
627568.8907922817 1012741.1225827486 151.8 6 20 44 4052
627549.1831177502 1012732.3783935148 129.8 6 20 48 4052
627548.6585328388 1012704.2338317955 130.8 6 20 52 4052
627559.2910459158 1012678.4253459792 131.3 6 20 56 4052
627535.3435519803 1012669.0924699907 129.6 6 21 00 4052
627546.9709540814 1012627.8279641378 41.8 6 21 08 4052
627493.2950897849 1012544.6085471874 236.3 6 21 12 4052
627536.6752808215 1012576.45199504 108.8 6 21 16 4052
627532.4166669345 1012588.5137070747 114.1 6 21 20 4052
627545.5414216978 1012594.0629701829 25.4 6 21 24 4052
627541.6731326557 1012587.316110507 90.5 6 21 28 4052
627533.5089420766 1012590.5629782418 105.2 6 21 32 4052
627493.791808516 1012578.0056078541 208.7 6 21 37 4052
627536.7467147061 1012581.5610679644 123.5 6 22 00 4052
627551.3274538004 1012599.0467197612 97.7 6 22 20 4052
627565.9565754035 1012584.4972135461 136.6 6 22 24 4052
627573.0692804299 1012586.9971730487 106.7 6 22 28 4052
627610.1276664218 1012572.1330093476 98.6 6 22 33 4052
627541.3194457763 1012604.9858152302 72.3 6 22 36 4052
627560.4236479413 1012589.6213832143 109.7 6 22 40 4052
627605.5646875838 1012610.4014391333 108.1 6 22 44 4052
627673.3731102967 1012638.7742432939 128.9 6 22 48 4052
627774.1885830179 1012651.1642690921 145.5 6 23 00 4052
627785.1290741683 1012649.12069745 136.3 6 23 08 4052
627802.9889270735 1012627.7920301151 161.1 6 23 16 4052
627796.0800378022 1012643.8371361814 135.7 6 23 20 4052
627867.414832751 1012550.1401299976 127.1 6 23 28 4052
627823.9314112362 1012516.2944379036 141.1 6 23 32 4052
627808.4605657808 1012515.8352878997 156.7 6 23 36 4052
627804.1584586429 1012510.7235963882 155.8 6 23 40 4052
627769.760199611 1012566.1020416982 116.9 6 23 45 4052
627767.0675861199 1012569.6098209536 168.5 6 23 48 4052
627743.9121609854 1012563.3977669098 74.3 6 23 52 4052
627744.392304579 1012574.6454138517 115.1 6 23 56 4052
627739.8802788293 1012576.6876472053 -7.1 7 00 04 4052
627729.3799132336 1012632.983732007 112.7 7 00 08 4052
627722.7747877868 1012636.6447474505 116.9 7 00 12 4052
627727.536723463 1012645.683544438 140.0 7 00 16 4052
627710.6304379557 1012657.5827538369 79.0 7 00 20 4052
627742.1369377738 1012674.1168713883 123.3 7 00 24 4052
627737.9942028641 1012680.9042251533 114.6 7 00 28 4052
627770.8483899294 1012698.6480572964 105.2 7 00 32 4052
627806.6867646726 1012734.8575539892 102.8 7 00 36 4052
627837.3140015755 1012751.4110351253 165.1 7 00 40 4052
627830.5631559056 1012752.561368915 144.1 7 00 44 4052
627797.1844359961 1012740.7318715437 83.9 7 00 48 4052
627779.6076018531 1012759.5070269045 127.3 7 00 56 4052
627771.8961525761 1012758.674864173 127.2 7 00 57 4052
627795.8551714724 1012757.613310704 87.4 7 01 00 4052
627781.538499249 1012774.0767987568 143.2 7 01 12 4052
627775.5825263327 1012767.2899868872 125.2 7 01 16 4052
627768.5408498534 1012753.0243853674 126.1 7 01 20 4052
627753.5930733219 1012726.7462497203 91.6 7 01 24 4052
627782.7578327749 1012770.8075387134 152.4 7 01 28 4052
627767.664722151 1012758.9044687517 154.1 7 01 32 4052
627762.4763064802 1012745.8280753372 125.8 7 01 36 4052
627773.806861221 1012799.8946161335 215.1 7 01 40 4052
627773.5757949192 1012748.9823293866 135.5 7 01 44 4052
627773.4364263897 1012751.3040821508 137.4 7 01 48 4052
627780.2720477869 1012781.7249183417 206.6 7 01 52 4052
627766.7628940853 1012738.7315620066 118.6 7 01 56 4052
627775.9231914119 1012723.0807629884 110.3 7 02 01 4052
627802.7711523373 1012684.9728168357 111.3 7 02 04 4052
627825.0259892482 1012680.8094959431 108.9 7 02 08 4052
627792.2220714721 1012729.1158746395 119.8 7 02 12 4052
627793.7573503219 1012709.6917360426 154.8 7 02 16 4052
627812.2438522752 1012678.0699988549 117.4 7 02 20 4052
627786.6204833266 1012639.8698788723 92.9 7 02 24 4052
627779.3642919144 1012674.9780460248 129.8 7 02 28 4052
627749.1185707686 1012710.3768495097 104.6 7 02 32 4052
627741.6307727029 1012701.5393458083 99.3 7 02 37 4052
627732.3293169806 1012706.4633302403 83.6 7 02 40 4052
627706.3802382599 1012721.4627721832 71.0 7 02 44 4052
627680.6314503077 1012732.2939692502 93.6 7 02 48 4052
627687.8098207135 1012741.672308536 81.7 7 02 52 4052
627670.2980737303 1012736.9050072258 116.9 7 02 56 4052
627675.1870584382 1012730.4186269392 91.9 7 03 00 4052
627669.5617853615 1012726.7070557512 91.4 7 03 08 4052
627693.6099156644 1012732.0815443825 89.9 7 03 12 4052
627682.6036202881 1012737.497647963 103.4 7 03 16 4052
627699.1035331731 1012725.5197123913 45.2 7 03 24 4052
627683.919492143 1012707.7334736291 97.1 7 03 33 4052
627701.3950541443 1012696.4885231331 111.4 7 03 36 4052
627715.5741104268 1012688.6056545429 71.8 7 03 40 4052
627684.2907354586 1012688.0512424933 128.5 7 03 44 4052
627681.5629126233 1012682.0489404215 105.9 7 18 20 4052
627697.092819787 1012677.8085442334 86.7 7 18 24 4052
627743.7446904235 1012679.8722818348 36.2 7 18 28 4052
627625.3256770907 1012626.4773448531 131.6 7 18 32 4052
627570.4298523121 1012601.2757262798 75.1 7 18 37 4052
627531.2415656894 1012574.6651755429 71.4 7 18 40 4052
627526.4734969916 1012577.735009448 94.5 7 18 48 4052
627507.1927064426 1012562.666997081 88.9 7 18 52 4052
627511.7163413453 1012574.0603672267 95.2 7 18 56 4052
627523.297047269 1012581.3518231907 130.4 7 19 00 4052
627523.6055085734 1012642.4488229782 134.0 7 19 08 4052
627529.7914437922 1012673.3540483947 126.3 7 19 12 4052
627586.8180334686 1012654.5844202198 212.6 7 19 16 4052
627535.5257862185 1012731.8367250583 128.5 7 19 20 4052
627539.694888165 1012733.8959214689 160.6 7 19 24 4052
627556.829644064 1012749.9301529381 116.1 7 19 29 4052
627559.8284854838 1012757.0833618136 136.6 7 19 32 4052
627553.1300613785 1012748.8013496243 136.5 7 19 36 4052
627531.2358611766 1012746.7955575819 113.0 7 19 41 4052
627537.0724918437 1012746.3057109432 109.4 7 19 44 4052
627546.4086607273 1012693.135298308 112.9 7 19 49 4052
627555.7728229483 1012709.6420769406 141.4 7 19 52 4052
627551.5399163038 1012689.8897101269 109.0 7 19 56 4052
627546.3102032506 1012710.0317602501 122.0 7 20 00 4052
627532.3813642706 1012653.9775501766 127.5 7 20 08 4052
627525.153963842 1012625.7118522275 124.5 7 20 12 4052
627520.0963074769 1012568.6468029782 103.2 7 20 16 4052
627529.7480202274 1012570.9669535287 133.2 7 20 20 4052
627510.2111849036 1012563.7383070071 107.1 7 20 24 4052
627501.6020126974 1012578.8933199436 71.5 7 20 28 4052
627511.4629946528 1012557.2070062868 103.9 7 20 32 4052
627518.330188327 1012567.6901114479 114.2 7 20 36 4052
627514.5298057438 1012570.5529632046 147.9 7 20 40 4052
627520.815359305 1012570.5732310371 124.0 7 20 44 4052
627512.6113705584 1012565.7143877639 102.7 7 20 48 4052
627486.6139999466 1012541.158998572 95.7 7 21 00 4052
627490.9476078921 1012533.1005565756 101.3 7 21 08 4052
627478.8648017021 1012541.7975046919 103.2 7 21 12 4052
627493.7396299402 1012529.4272104038 108.7 7 21 16 4052
627496.6133402751 1012548.1357202608 120.9 7 21 20 4052
627483.5933965382 1012533.9283229812 103.0 7 21 24 4052
627455.4667764145 1012539.2450757042 135.5 7 21 52 4052
627447.5536357359 1012529.3778671306 178.9 7 21 56 4052
627460.2406990642 1012547.9963588408 147.2 7 22 00 4052
627455.978042867 1012530.6324653924 110.9 7 22 08 4052
627504.990747764 1012577.5993900601 108.3 7 22 12 4052
627549.7259751755 1012584.5222673032 49.2 7 22 16 4052
627514.7311410813 1012555.8242233593 91.2 7 22 20 4052
627518.2875948232 1012570.675661115 126.8 7 22 24 4052
627472.926752845 1012532.8323627429 216.0 7 22 32 4052
627523.963109208 1012599.7104176392 140.4 7 22 36 4052
627514.5844901513 1012662.6449977728 88.6 7 22 40 4052
627532.0269771355 1012682.0861001877 142.0 7 22 44 4052
627533.0645494683 1012711.3160083115 124.6 7 22 48 4052
627548.3893976746 1012729.7550629354 86.4 7 22 52 4052
627551.3366247924 1012752.9091781023 132.1 7 22 56 4052
627556.4636653303 1012754.3743294413 96.7 7 23 00 4052
627611.9336774194 1012713.9590184503 126.5 7 23 08 4052
627683.1559444183 1012685.5595041659 110.3 7 23 12 4052
627721.9782157099 1012685.9392194125 113.7 7 23 16 4052
627768.803250728 1012644.6115253791 168.1 7 23 20 4052
627810.1131492485 1012647.1225171906 184.3 7 23 24 4052
627809.0159631717 1012632.9977633718 145.0 7 23 28 4052
627810.3350551152 1012636.2641695093 152.9 7 23 32 4052
627809.1241348634 1012633.5289023106 122.5 7 23 36 4052
627816.837463364 1012640.5867918502 174.2 7 23 40 4052
627807.9560751519 1012641.332153289 180.3 7 23 44 4052
627812.0435122909 1012624.4596290373 119.0 7 23 48 4052
627800.8655659589 1012628.5702935079 191.5 7 23 52 4052
627828.2466365732 1012636.3331240969 177.3 7 23 56 4052
627773.9856643943 1012625.5419734927 138.8 8 00 00 4052
627734.0578316086 1012582.98301984 119.1 8 00 08 4052
627731.0308936954 1012584.5324360747 110.1 8 00 12 4052
627730.7460081079 1012584.2771794318 99.6 8 00 16 4052
627733.622722409 1012588.4111453827 107.7 8 00 20 4052
627746.0503495187 1012585.2444375069 79.0 8 00 24 4052
627709.7778981095 1012584.7070740402 144.6 8 00 28 4052
627731.9736502976 1012592.0439363389 93.3 8 00 32 4052
627725.4109837579 1012582.5569994152 114.2 8 00 36 4052
627748.3643353933 1012637.7115793308 -16.6 8 00 40 4052
627726.6055297125 1012627.7885180863 26.3 8 00 44 4052
627733.9251932572 1012579.8199725753 122.0 8 00 48 4052
627728.9835243556 1012606.011726554 81.2 8 00 52 4052
627731.7557196991 1012605.0807415807 64.4 8 00 56 4052
627717.8538832562 1012601.9727448708 101.3 8 01 00 4052
627716.6746331227 1012589.4290426243 137.4 8 01 12 4052
627725.4836440313 1012597.4856793239 100.8 8 01 16 4052
627685.1268830813 1012572.0322906153 143.4 8 01 20 4052
627652.9659049388 1012584.6010522186 81.0 8 01 24 4052
627649.9524735964 1012598.9889776043 78.5 8 01 28 4052
627638.6114737943 1012592.3396246008 116.1 8 01 32 4052
627632.123855673 1012580.0220735659 167.3 8 01 36 4052
627628.6187747205 1012576.5053423217 152.6 8 01 40 4052
627637.7840396919 1012589.948403392 123.4 8 01 44 4052
627628.0492263542 1012603.1645931527 137.9 8 01 48 4052
627611.1368617793 1012610.1429675699 152.0 8 01 52 4052
627610.5907382966 1012619.3304893242 126.6 8 01 56 4052
627596.7870278306 1012684.5729888909 107.9 8 02 04 4052
627616.7300372295 1012576.13523207 72.7 8 02 12 4052
627649.5728192955 1012604.2624681505 144.6 8 02 16 4052
627593.2217092987 1012631.6152859714 119.5 8 02 20 4052
627553.8823209242 1012628.0161284414 111.9 8 02 24 4052
627553.3785493128 1012624.0778192977 102.2 8 02 28 4052
627519.4924525848 1012602.5600490484 119.2 8 02 32 4052
627541.2366994387 1012627.2344478172 112.1 8 02 36 4052
627507.6122263587 1012589.3294280728 56.9 8 02 40 4052
627528.9464563945 1012621.8869217831 109.4 8 02 44 4052
627551.4867575072 1012566.6912291712 79.5 8 02 48 4052
627486.7953842165 1012566.7037915771 80.3 8 02 52 4052
627446.6869956846 1012559.6079124246 41.1 8 02 56 4052
627462.8005964691 1012565.1999517991 79.5 8 03 08 4052
627457.4979465951 1012560.2509495215 90.3 8 03 16 4052
627461.1545323901 1012564.4979862224 85.5 8 03 20 4052
627273.3728442097 1012593.1750259547 119.1 8 03 53 4052
627304.2501277993 1012597.0009908759 161.3 8 03 56 4052
627303.8781133798 1012596.5021791252 156.3 8 04 00 4052
627321.3222482356 1012598.4050405051 171.1 8 04 08 4052
627286.1854705072 1012606.9393563477 131.9 8 04 12 4052
627279.8665341446 1012607.0517147129 125.2 8 04 16 4052
627289.5074073498 1012605.9105884032 135.3 8 04 20 4052
627306.7866359956 1012607.835029202 153.8 8 04 24 4052
627317.4227128585 1012608.1788979572 180.7 8 04 28 4052
627301.9565753184 1012609.6882977211 149.9 8 04 32 4052
627299.0511414434 1012611.0501481646 154.8 8 04 36 4052
627300.8042338865 1012616.0540494235 162.8 8 04 40 4052
627304.1373707016 1012604.7191764943 143.5 8 04 45 4052
627329.4364157016 1012603.8606898998 196.8 8 04 52 4052
627312.536327353 1012658.2452695824 227.5 8 04 56 4052
627298.0979231417 1012647.726772491 186.1 8 05 01 4052
627282.577559602 1012614.8785114918 168.7 8 05 04 4052
627302.1745094405 1012606.8470695114 165.3 8 05 08 4052
627297.8864697973 1012614.4191171532 141.2 8 05 12 4052
627301.3764053158 1012612.406720811 169.0 8 05 16 4052
627290.4612240788 1012616.8390536378 151.3 8 05 20 4052
627295.2884975913 1012595.3687192356 135.4 8 05 24 4052
627297.5187336372 1012598.9366040796 134.9 8 05 28 4052
627296.9296501543 1012597.5966786362 136.3 8 05 32 4052
627294.9127250722 1012602.8648961622 143.7 8 05 36 4052
627317.6958426257 1012584.7808524906 158.3 8 05 40 4052
627384.2651516044 1012550.9915856224 130.9 8 05 52 4052
627439.5961496538 1012529.8608965634 82.0 8 05 56 4052
627512.6153421951 1012571.2987409851 26.9 8 06 05 4052
627535.261035075 1012589.0536689335 119.6 8 06 08 4052
627591.4959132262 1012604.5394815394 77.7 8 06 12 4052
627631.7847746474 1012644.2243330302 134.7 8 06 16 4052
627673.1772065947 1012668.8184849569 136.0 8 06 20 4052
627690.1486880835 1012684.3656930667 130.6 8 18 41 4052
627743.1876027582 1012675.4361805314 157.4 8 18 48 4052
627781.0364370608 1012735.6150678656 103.2 8 18 52 4052
627799.9921479635 1012735.6099829869 150.1 8 18 56 4052
627794.4600318078 1012726.8783112154 153.5 8 19 00 4052
627840.510762337 1012717.7273021127 156.6 8 19 17 4052
627854.6880230351 1012690.0172785972 193.1 8 19 20 4052
627824.0553802795 1012726.1114421722 124.9 8 19 25 4052
627783.4041537052 1012713.6281380861 107.1 8 19 28 4052
627690.003869859 1012746.2242760331 95.8 8 19 40 4052
627618.1342289916 1012770.9503851767 75.4 8 19 44 4052
627574.4982303994 1012757.1749241895 86.8 8 19 48 4052
627553.4281154163 1012758.5997898116 79.8 8 19 52 4052
627545.9864592509 1012755.888664748 101.5 8 19 56 4052
627558.8695432814 1012751.175241353 132.6 8 20 05 4052
627556.6563556809 1012742.332677542 137.5 8 20 08 4052
627591.4655864546 1012733.1340660284 172.4 8 20 12 4052
627573.6993769105 1012732.3026729864 137.5 8 20 16 4052
627546.9961634673 1012746.0612691343 118.6 8 20 20 4052
627559.0372265419 1012746.8852385486 158.4 8 20 24 4052
627588.764080646 1012736.0004555326 120.5 8 20 28 4052
627565.0133852046 1012706.5535024697 154.4 8 20 32 4052
627550.3575289549 1012695.3375402823 129.8 8 20 36 4052
627546.2112784343 1012675.9724878066 132.3 8 20 40 4052
627555.3482145666 1012691.3837806145 152.7 8 20 44 4052
627544.0240334559 1012682.9320367437 90.8 8 21 00 4052
627511.6691664847 1012643.2175726679 107.2 8 21 36 4052
627537.7340021444 1012592.3127260179 51.4 8 21 40 4052
627515.3015814956 1012586.7998006284 123.8 8 21 44 4052
627453.8611407365 1012580.5529539739 237.4 8 21 48 4052
627519.7068651213 1012576.9612384808 114.5 8 21 52 4052
627530.1446733932 1012563.8246997719 86.7 8 21 56 4052
627512.9997625409 1012567.949376251 101.7 8 22 00 4052
627454.5293146181 1012570.9898528646 135.6 8 22 08 4052
627482.1167709682 1012572.7043150461 100.3 8 22 12 4052
627449.4511449448 1012574.810646545 79.5 8 22 16 4052
627451.4602043334 1012568.5803543103 97.1 8 22 20 4052
627434.9735049421 1012576.4669376175 67.9 8 22 24 4052
627443.004254892 1012573.7061764941 49.2 8 22 28 4052
627444.7950582056 1012563.5937885097 74.8 8 22 32 4052
627447.8292764613 1012556.3715710926 79.4 8 22 36 4052
627466.0068130516 1012555.7556120125 88.7 8 22 40 4052
627459.6379224589 1012547.4968017032 88.0 8 22 44 4052
627457.1027562136 1012553.3051904367 82.7 8 22 48 4052
627449.1959793228 1012565.3330345792 94.5 8 22 52 4052
627460.0156730337 1012556.4440203496 111.8 8 22 56 4052
627404.5525552643 1012557.1941812818 100.7 8 23 00 4052
627271.0976382007 1012596.7505250761 141.9 8 23 08 4052
627280.344699173 1012595.0552242408 177.9 8 23 12 4052
627286.7684348231 1012596.5245101729 146.8 8 23 16 4052
627277.1646098606 1012599.8110264345 153.0 8 23 20 4052
627275.4255188974 1012597.2841842988 140.8 8 23 24 4052
627268.7862161772 1012591.0924015195 122.3 8 23 28 4052
627273.9617794042 1012611.6328760883 171.9 8 23 32 4052
627295.6645390684 1012604.8577728553 173.9 8 23 36 4052
627291.3792397704 1012587.6818197673 127.7 8 23 40 4052
627289.1992640712 1012592.3966080924 185.9 8 23 44 4052
627292.1303179846 1012610.3865005006 166.7 8 23 48 4052
627294.6874895949 1012597.7332163445 151.7 8 23 52 4052
627308.2074422993 1012599.9994154893 155.7 8 23 56 4052
627319.7427446096 1012600.9212003379 171.8 9 00 00 4052
627288.4136972133 1012604.3036445794 166.6 9 00 08 4052
627278.9454220955 1012599.6177124132 172.4 9 00 12 4052
627273.651594121 1012602.1661514369 173.5 9 00 16 4052
627481.4566579621 1012596.8088425018 94.5 9 01 17 4052
627483.8429653861 1012586.0459469057 101.6 9 01 20 4052
627515.874165392 1012583.0308348171 87.8 9 01 24 4052
627536.1406265633 1012513.9388284077 131.4 9 01 32 4052
627570.8436644445 1012575.1909985336 21.6 9 01 36 4052
627523.8990679353 1012578.6777042514 132.0 9 01 44 4052
627556.2220386073 1012560.1601063985 156.7 9 01 48 4052
627526.8054439285 1012600.8806841541 132.7 9 01 56 4052
627551.6405567754 1012559.8909929909 170.1 9 02 00 4052
627510.6266804782 1012595.0561853882 119.7 9 02 08 4052
627530.8650100013 1012589.2053634404 102.6 9 02 12 4052
627536.6491094175 1012587.9744516392 121.8 9 02 16 4052
627566.9103096722 1012581.8021132372 124.8 9 02 20 4052
627573.8544757494 1012588.8574672269 101.1 9 02 28 4052
627579.4526587934 1012580.537718159 113.4 9 02 32 4052
627582.7924159894 1012601.2382024279 210.2 9 02 36 4052
627571.3335876293 1012569.7962252101 57.6 9 02 40 4052
627576.854601415 1012561.553633357 140.6 9 02 44 4052
627572.7024073899 1012588.31190368 103.1 9 02 48 4052
627610.0729595321 1012599.3025929155 112.3 9 02 52 4052
627598.923790613 1012604.7182616288 80.6 9 02 56 4052
627596.9703341823 1012586.8973545652 93.2 9 03 01 4052
627614.9378959453 1012600.2692889854 117.5 9 03 04 4052
627624.6816833908 1012601.2959633885 121.6 9 03 08 4052
627628.935458662 1012604.3617286475 116.9 9 03 13 4052
627617.3677553514 1012606.66871436 124.0 9 03 16 4052
627624.6985218206 1012602.8883847127 150.4 9 03 20 4052
627622.2555157763 1012617.5877787343 144.0 9 03 24 4052
627652.8333047726 1012598.4453716272 101.7 9 03 28 4052
627641.9610371351 1012592.9696897793 72.5 9 03 32 4052
627634.9789238393 1012614.6984454328 66.1 9 03 36 4052
627688.7032806906 1012631.7354960154 118.8 9 03 40 4052
627729.9789225768 1012638.0502803125 104.3 9 03 45 4052
627718.4053135536 1012635.381068528 89.2 9 03 53 4052
627718.9898313952 1012610.9113644375 101.3 9 04 00 4052
627725.6990733781 1012626.0494673393 113.8 9 04 05 4052
627723.4736009897 1012617.6160011832 94.6 9 04 08 4052
627709.5185182553 1012620.7888397898 94.4 9 04 12 4052
627705.0396903985 1012619.3589378677 106.7 9 04 16 4052
627712.6446040563 1012629.3689688493 86.8 9 04 20 4052
627741.636283506 1012618.1943994698 158.4 9 04 24 4052
627702.008338405 1012618.873649923 114.4 9 04 28 4052
627698.5543988117 1012650.566088553 45.2 9 04 32 4052
627680.8376455742 1012644.6149083993 95.8 9 04 40 4052
627664.6975014168 1012664.2793997539 99.1 9 04 44 4052
627661.0573690801 1012688.9825140063 100.0 9 18 32 4052
627665.2986153826 1012689.1178463439 99.2 9 18 33 4052
627653.8368637294 1012689.2467138717 113.0 9 18 36 4052
627644.9682202297 1012696.2620969502 77.9 9 18 40 4052
627621.48223304 1012724.395512618 114.2 9 18 44 4052
627569.5345912853 1012711.875978084 84.8 9 18 48 4052
627554.9837913364 1012739.6291048315 112.7 9 18 52 4052
627559.4898316497 1012746.2453287675 129.5 9 18 56 4052
627553.5972520639 1012733.4210365197 96.3 9 19 00 4052
627555.9074854583 1012746.2448298938 131.1 9 19 08 4052
627551.2608050551 1012742.3484458885 117.0 9 19 12 4052
627543.7216833248 1012752.8182647872 129.5 9 19 16 4052
627562.9806965718 1012726.9159695155 99.5 9 19 20 4052
627553.7802457596 1012741.4166347786 103.6 9 19 24 4052
627555.264040444 1012744.7277940934 133.5 9 19 28 4052
627556.4059739321 1012751.8197216607 136.9 9 19 32 4052
627565.9490324924 1012719.6824887495 94.5 9 19 36 4052
627560.0085097364 1012738.7496085973 120.1 9 19 40 4052
627558.5942524889 1012741.1335961785 120.1 9 19 44 4052
627536.4442221506 1012760.5244032383 139.8 9 19 52 4052
627557.3738295919 1012737.9338674021 117.2 9 19 56 4052
627560.6752145223 1012733.0568366918 128.5 9 20 00 4052
627578.5813904642 1012666.6664677664 129.3 9 20 08 4052
627558.8054231959 1012726.769802398 141.2 9 20 12 4052
627528.5246823748 1012708.3709690708 82.7 9 20 16 4052
627550.5797329132 1012701.3980969083 115.0 9 20 20 4052
627552.8037970394 1012693.2443920088 110.8 9 20 24 4052
627535.8332757304 1012680.7935206231 145.0 9 20 28 4052
627556.0308755378 1012643.2721812353 173.7 9 20 33 4052
627528.6685812093 1012660.3461002822 109.9 9 20 37 4052
627524.7182669654 1012648.3684953939 111.6 9 20 40 4052
627535.1657430966 1012645.858826014 124.7 9 20 44 4052
627560.012242771 1012631.9947021361 167.2 9 20 48 4052
627539.2160281255 1012630.2467922254 134.4 9 20 52 4052
627541.7321902236 1012596.2623046912 30.6 9 21 04 4052
627542.6370103359 1012595.1041223179 31.1 9 21 05 4052
627567.0851931152 1012568.4666065809 -180.5 9 21 09 4052
627477.7162694787 1012567.4264748234 149.6 9 21 12 4052
627497.3276501346 1012565.167495931 61.6 9 21 16 4052
627479.6767206432 1012542.1871553166 86.6 9 21 20 4052
627494.9734701009 1012542.1037695158 78.0 9 21 24 4052
627452.0781326756 1012526.8712018371 201.4 9 21 28 4052
627497.4683412377 1012541.9791154813 106.6 9 21 32 4052
627467.9283935595 1012549.3923410825 93.1 9 21 36 4052
627521.7518086364 1012600.4994700034 118.1 9 21 44 4052
627562.6765865091 1012589.5512437638 32.9 9 21 48 4052
627622.8284932671 1012623.9148634415 74.5 9 21 52 4052
627587.405182228 1012595.2153606 117.5 9 21 56 4052
627580.7616418736 1012597.1622689832 131.1 9 22 00 4052
627633.4995547492 1012610.0160924566 86.4 9 22 08 4052
627644.8083716517 1012589.1859503848 110.7 9 22 12 4052
627638.74772855 1012590.9799175311 90.7 9 22 16 4052
627655.0273514112 1012568.9604880275 110.5 9 22 20 4052
627709.8719848763 1012558.9751630907 117.7 9 22 24 4052
627726.7641085852 1012568.4843988603 108.5 9 22 28 4052
627742.7478875151 1012573.4347682158 129.2 9 22 32 4052
627711.2680249496 1012626.8875070008 100.1 9 22 36 4052
627778.6878567699 1012629.2616340957 113.2 9 22 40 4052
627803.3901215695 1012660.0608936913 158.4 9 22 44 4052
627807.0190482493 1012645.6528460794 141.7 9 22 48 4052
627803.7101782126 1012635.8336075591 168.8 9 22 52 4052
627808.1454537634 1012647.3373195663 160.3 9 22 56 4052
627802.7586097575 1012631.0534283696 169.1 9 23 00 4052
627805.1423384603 1012638.1162070642 163.9 9 23 08 4052
627800.5299914548 1012620.19821936 174.2 9 23 12 4052
627811.9095322497 1012638.7131009616 141.2 9 23 16 4052
627791.5460740443 1012625.4660207108 176.7 9 23 20 4052
627825.2752491285 1012637.6947247913 159.5 9 23 24 4052
627826.6993505589 1012639.0705340549 152.1 9 23 25 4052
627857.9035563562 1012667.5244162884 146.1 9 23 28 4052
627861.8858618315 1012706.9594658879 104.9 9 23 32 4052
627842.7089002784 1012748.1995092585 131.3 9 23 36 4052
627836.3653297647 1012762.7314751061 127.9 9 23 40 4052
627850.4105322605 1012735.076315474 140.8 9 23 44 4052
627814.4148761568 1012730.536696858 85.0 9 23 48 4052
627790.1462551944 1012752.5855348393 128.2 10 00 45 4052
627771.157601956 1012735.5831436308 104.9 10 00 48 4052
627760.2081564555 1012757.4096454016 145.8 10 00 52 4052
627763.1996113833 1012743.0327107566 128.8 10 00 56 4052
627753.3519583246 1012743.5537969613 151.6 10 01 00 4052
627756.7304488665 1012735.2268985164 123.5 10 01 08 4052
627767.7525383233 1012741.9305536812 105.5 10 01 12 4052
627777.3582614114 1012721.0617663285 135.2 10 01 16 4052
627723.6046323436 1012641.6899249332 146.9 10 01 24 4052
627719.38942715 1012619.8807802107 131.2 10 01 28 4052
627730.8681660027 1012624.706016304 118.0 10 01 32 4052
627716.2817032132 1012626.0301089404 127.8 10 01 36 4052
627721.7844436172 1012606.441856823 137.2 10 01 40 4052
627729.1202826869 1012594.2905740475 70.2 10 01 44 4052
627707.8957641678 1012606.0652585791 109.5 10 01 48 4052
627713.4595133028 1012608.4164873615 115.2 10 01 52 4052
627705.8668848566 1012628.6283029438 107.1 10 01 56 4052
627710.0549528401 1012590.789927622 95.5 10 02 00 4052
627689.1254260191 1012572.4654091412 119.4 10 02 12 4052
627710.1742628028 1012577.6643399212 107.6 10 02 16 4052
627707.6952792543 1012549.0490121029 47.2 10 02 20 4052
627727.0495083244 1012606.0054797927 88.6 10 02 28 4052
627745.336429761 1012578.3308136634 46.7 10 02 32 4052
627704.2399242072 1012587.9845058501 102.5 10 02 36 4052
627715.8411463969 1012595.7184138261 115.9 10 02 40 4052
627738.809904277 1012588.2730869506 94.5 10 02 44 4052
627730.2467648257 1012575.5396618318 51.2 10 02 48 4052
627685.8296068019 1012565.3996959174 126.8 10 02 52 4052
627619.9909736875 1012583.7979631417 200.3 10 02 56 4052
627662.0995277585 1012570.3987549511 86.4 10 03 00 4052
627634.2069886817 1012595.1120510518 125.4 10 03 17 4052
627659.355961974 1012582.8855571742 73.9 10 03 24 4052
627635.7966423181 1012596.2672246052 121.2 10 03 28 4052
627644.6088612728 1012589.7160954333 103.7 10 03 32 4052
627658.3412389554 1012590.8551753433 134.2 10 03 36 4052
627649.0725289931 1012592.4397391161 127.9 10 03 44 4052
627647.2473795033 1012582.5368439923 100.4 10 03 48 4052
627620.5826979214 1012655.8213039873 46.1 10 04 00 4052
627588.0953287928 1012650.3754042274 99.4 10 04 09 4052
627603.5087173603 1012631.1619230043 109.8 10 04 13 4052
627599.1598619139 1012630.3185322772 106.4 10 04 21 4052
627605.1714373617 1012633.5116063748 102.4 10 04 24 4052
