627928.3460479238 1011809.930200926 85.3 62 07 20 4672
627866.8018402869 1011825.212663613 83.9 62 07 24 4672
627833.8228759579 1011801.6408218263 74.1 62 07 28 4672
627806.0355459484 1011779.9767135701 76.2 62 07 32 4672
627790.0088747209 1011774.5949561732 74.0 62 07 36 4672
627775.6862062493 1011820.0528153167 75.5 62 07 40 4672
627775.8786090568 1011825.1291067359 73.0 62 07 44 4672
627756.0134096362 1011827.5972804645 71.2 62 07 48 4672
627723.6278297962 1011807.4222917584 81.3 62 07 52 4672
627701.8011371312 1011808.1701573383 62.7 62 07 56 4672
627690.9179756042 1011846.8715737074 85.6 62 08 00 4672
627669.1324653322 1011899.5816064094 74.7 62 08 08 4672
627639.8461584973 1011923.5937943378 78.7 62 08 13 4672
627623.8996359702 1011947.8922987855 83.4 62 08 17 4672
627630.298997033 1011980.7997297125 70.3 62 08 21 4672
627583.3032305018 1012013.5681364861 73.2 62 08 24 4672
627559.8122441167 1012056.7959137665 101.8 62 08 28 4672
627475.081211376 1012024.5317688201 86.9 62 08 33 4672
627431.4820035432 1011999.0572378617 92.9 62 08 36 4672
627414.6533032993 1011986.8170263268 86.9 62 08 40 4672
627415.2841587871 1012002.4883756548 98.6 62 08 44 4672
627445.161939273 1012002.8942225343 85.7 62 08 48 4672
627411.8218004095 1012012.9824151425 85.8 62 08 52 4672
627397.2995179143 1012021.6162583148 90.5 62 08 56 4672
627372.5453111228 1012044.2720019177 149.8 62 09 01 4672
627378.2740595357 1012036.3617919652 130.2 62 09 02 4672
627398.9511417133 1011996.7076933908 85.3 62 09 09 4672
627435.4358669259 1011975.8479744154 4.1 62 09 13 4672
627421.8552690445 1012009.4097860225 78.9 62 09 17 4672
627390.1593099105 1012000.317500074 231.8 62 09 20 4672
627389.0785188524 1012001.5193525968 234.9 62 09 21 4672
627412.1894458153 1012004.6015644089 87.4 62 09 52 4672
627417.9028819442 1012004.8632402093 86.2 62 09 56 4672
627419.7021102894 1012012.6096994024 70.2 62 10 00 4672
627414.7891248821 1012002.6526530045 108.7 62 10 08 4672
627419.6423017717 1011993.6448767477 112.8 62 10 12 4672
627483.4754393883 1011943.0938235403 192.4 62 10 17 4672
627406.6932405193 1011991.4800269296 84.5 62 10 20 4672
627403.7365890472 1011991.66955279 90.2 62 10 21 4672
627411.2686850504 1011969.7545487082 114.9 62 10 24 4672
627377.220050104 1011991.6947657786 73.4 62 10 28 4672
627396.107083006 1012016.5367545682 106.5 62 10 32 4672
627387.0799079093 1012069.3543148192 58.5 62 10 36 4672
627415.5547786634 1012065.1886363933 88.2 62 10 41 4672
627433.8058741938 1012092.9811148972 90.5 62 10 45 4672
627484.9104426494 1012121.8636237438 137.7 62 10 48 4672
627445.8224501571 1012149.2281167632 103.3 62 10 53 4672
627446.7870227703 1012180.6915048494 104.5 62 10 56 4672
627452.2300920374 1012186.415017117 106.1 62 11 01 4672
627431.6532772979 1012184.7121339153 109.3 62 11 05 4672
627408.3574125186 1012184.4933475432 118.3 62 11 08 4672
627332.1249825517 1012178.3207777499 44.6 62 11 13 4672
627379.8972989394 1012211.40556516 100.5 62 11 17 4672
627380.8768842515 1012207.50521244 132.7 62 11 20 4672
627381.1793414077 1012198.8919318095 125.2 62 11 24 4672
627355.365239263 1012185.5722862674 104.4 62 11 28 4672
627358.5396833303 1012189.4086053389 121.1 62 11 29 4672
627354.270560021 1012194.5037007018 120.0 62 11 32 4672
627342.2277968276 1012207.8120515629 123.9 62 11 36 4672
627315.2736595367 1012227.7625585546 97.9 62 11 41 4672
627322.3137403339 1012263.0937014046 127.3 62 11 44 4672
627307.863284404 1012276.7592267626 131.2 62 11 48 4672
627311.261160763 1012296.5309708472 146.2 62 11 52 4672
627293.159814779 1012324.6597902762 104.5 62 11 56 4672
627291.0127728677 1012322.5518438672 111.2 62 11 57 4672
627297.120939383 1012323.0691143723 118.0 62 12 00 4672
627274.3775481241 1012280.9530721362 99.3 62 12 08 4672
627275.0035896364 1012281.0546091895 126.7 62 12 12 4672
627285.064493415 1012282.5908810744 121.0 62 12 16 4672
627315.2306728197 1012254.777336362 131.6 62 12 20 4672
627278.7737549681 1012250.0156235823 80.9 62 12 24 4672
627269.9031367654 1012233.7316926436 127.0 62 12 28 4672
627261.3369187958 1012225.299987098 103.1 62 12 32 4672
627236.4583099968 1012221.7808971935 87.4 62 12 36 4672
627229.6726633431 1012182.4807459159 125.8 62 12 40 4672
627205.757265708 1012166.4691389456 92.7 62 12 44 4672
627189.1525930291 1012152.9138301269 113.3 62 12 48 4672
627172.375861123 1012141.6027680624 102.5 62 12 52 4672
627190.2567454006 1012127.3510852287 99.6 62 12 56 4672
627224.9948533296 1012041.2871059543 121.5 62 13 13 4672
627251.9397344558 1012027.6506671387 105.0 62 13 17 4672
627251.7435706567 1012027.1413642458 99.4 62 13 20 4672
627256.6611111693 1011994.6906344795 109.0 62 13 24 4672
627249.4724929205 1011967.9180034185 106.4 62 13 28 4672
627241.4539394099 1011891.6688277308 84.4 62 13 32 4672
627259.8748711064 1011887.216361977 86.2 62 13 36 4672
627277.1258284459 1011870.6957678873 79.3 62 13 40 4672
627312.306135548 1011811.2500641858 78.9 62 13 44 4672
627351.5607631213 1011779.9713856187 69.7 62 13 48 4672
627386.9862074291 1011736.6049788833 59.6 62 13 52 4672
627387.2711872711 1011716.3474740859 55.7 62 13 56 4672
627387.18349159 1011729.9375851823 98.2 62 14 00 4672
627397.424231269 1011733.6860648273 46.1 62 14 08 4672
627403.1484069343 1011747.6929754541 66.3 62 14 12 4672
627399.3870001708 1011741.842195714 53.8 62 14 16 4672
627390.501348119 1011740.4423919672 37.4 62 14 20 4672
627398.6584449408 1011746.2741451582 69.2 62 15 01 4672
627388.9301730881 1011713.0464443923 62.2 62 15 12 4672
627379.3821441266 1011716.0013997597 49.6 62 15 16 4672
627388.9613521425 1011717.0163992714 54.3 62 15 20 4672
627374.3172429785 1011725.9152648948 41.4 62 15 24 4672
627413.6169294739 1011748.9541226967 78.5 62 15 29 4672
627414.7507141154 1011748.3606356638 61.0 62 15 32 4672
627419.6257347119 1011722.3345236224 77.2 62 15 36 4672
627387.7574799486 1011729.1432500365 44.3 62 15 40 4672
627438.7838730704 1011731.2758520524 81.9 62 15 44 4672
627411.7032351911 1011742.6227337435 51.6 62 15 48 4672
627394.8083783127 1011740.6553004894 62.1 62 15 52 4672
627414.1301430238 1011736.3163760726 63.9 62 15 56 4672
627395.2214657636 1011731.8101573403 101.6 62 16 01 4672
627399.828131245 1011751.5968520655 83.9 62 16 04 4672
627420.0760685704 1011722.4023219296 52.7 62 16 12 4672
627446.0827772849 1011723.7798506836 94.4 62 16 16 4672
627421.0441875205 1011715.2397951317 51.4 62 16 20 4672
627409.5998551078 1011709.8729540239 46.9 62 16 24 4672
627417.1207494745 1011688.0353174963 35.5 62 16 28 4672
627426.6476783543 1011691.6377505591 46.1 62 16 32 4672
627408.4271657016 1011684.999532032 55.7 62 16 36 4672
627438.2287392879 1011661.3648053131 54.0 62 16 40 4672
627447.3365485992 1011668.8583418794 61.4 62 16 44 4672
627459.2182690686 1011668.0783017207 46.3 62 16 48 4672
627467.0894759742 1011667.1415945642 59.0 62 16 52 4672
627452.521579261 1011666.0109910651 59.2 62 16 56 4672
627448.7416682616 1011662.4934048641 64.4 62 17 00 4672
627469.5905831122 1011668.509794444 75.4 62 17 08 4672
627465.9524621352 1011665.3244057792 66.9 62 17 12 4672
627430.9008470625 1011667.6222095636 41.1 62 17 16 4672
627423.636516825 1011671.2037613435 70.1 62 17 20 4672
627395.9494150273 1011686.5959669974 82.8 62 17 24 4672
627401.0955179968 1011702.6688784749 66.6 62 17 28 4672
627384.1798010533 1011717.4212175977 72.7 62 17 32 4672
627386.3444952834 1011727.7122086781 61.9 62 17 36 4672
627434.211680437 1011741.7442023194 68.6 62 17 40 4672
627465.8973025726 1011747.2868157988 78.7 62 17 44 4672
627465.5954725267 1011748.8782092147 77.8 62 17 45 4672
627461.2686370088 1011747.9906853525 84.1 62 17 48 4672
627468.3393238599 1011743.1147211044 73.5 62 17 52 4672
627465.6096106978 1011744.4881916154 76.1 62 17 56 4672
627471.585411446 1011741.7760881037 77.1 62 18 00 4672
627467.4494675434 1011743.0344486018 77.4 62 18 08 4672
627470.8614421611 1011744.7815579362 79.9 62 18 12 4672
627462.7081341553 1011744.600486485 61.8 62 18 16 4672
627453.071103402 1011744.4809873637 109.7 63 06 00 4672
627466.3038025006 1011743.9043483223 69.0 63 06 24 4672
627468.5727273592 1011742.2971738734 75.3 63 06 28 4672
627461.1140644297 1011751.6283002883 55.3 63 06 32 4672
627442.2915194712 1011740.8523962586 69.7 63 06 36 4672
627405.2607624672 1011740.1028663215 53.4 63 06 40 4672
627396.1545314676 1011704.8093026632 45.6 63 06 44 4672
627398.0150124367 1011703.7758303784 52.0 63 06 48 4672
627396.628738614 1011714.5308908293 54.7 63 06 52 4672
627397.2254792677 1011716.9103010978 45.1 63 06 56 4672
627394.5956735779 1011714.5575213662 68.4 63 07 00 4672
627410.046683382 1011751.994662717 61.7 63 07 08 4672
627423.0834956168 1011720.1008626495 61.4 63 07 12 4672
627421.7426528955 1011723.5687868396 34.4 63 07 16 4672
627453.274933995 1011705.0706004066 60.7 63 07 20 4672
627456.8572308192 1011705.115310134 43.1 63 07 24 4672
627465.5590022184 1011671.482496584 50.5 63 07 28 4672
627466.3198412291 1011670.6777059094 44.5 63 07 32 4672
627468.1996623729 1011663.6397541867 58.8 63 07 36 4672
627473.2711020984 1011661.9420817241 78.5 63 07 40 4672
627470.3118404248 1011659.5218873695 59.3 63 07 44 4672
627474.4411015732 1011643.2797881403 92.2 63 07 48 4672
627477.4745146562 1011653.3855963846 54.9 63 07 52 4672
627486.0589009514 1011615.2628205174 72.3 63 07 56 4672
627487.5763750903 1011608.1352374064 69.9 63 08 00 4672
627454.9857120225 1011590.1272367678 46.8 63 08 08 4672
627422.7630854171 1011577.2624638984 60.6 63 08 12 4672
627417.8253044817 1011571.5737693905 92.4 63 08 17 4672
627405.1276356303 1011556.1289809127 72.7 63 08 20 4672
627389.6799199226 1011599.5928508865 49.6 63 08 24 4672
627397.6534186545 1011597.6059390451 57.8 63 08 28 4672
627377.7775557507 1011620.443280574 64.7 63 08 32 4672
627369.652756226 1011635.3013249871 76.1 63 08 36 4672
627352.7526145562 1011641.7933368994 67.9 63 08 40 4672
627354.1638513174 1011650.6001161785 66.5 63 08 44 4672
627365.368508813 1011679.2323870615 67.7 63 08 48 4672
627391.5470412767 1011712.5904270122 73.0 63 08 52 4672
627387.3844305045 1011711.8914280619 54.8 63 08 56 4672
627398.8684569139 1011728.8251534082 64.7 63 09 00 4672
627399.2188858376 1011718.9624641674 34.3 63 09 08 4672
627414.1326127838 1011708.2398895707 18.1 63 09 12 4672
627394.8394950377 1011727.5736790759 82.9 63 09 16 4672
627509.2088921224 1011712.0404220717 39.0 63 09 21 4672
627596.882006362 1011653.4054141103 26.0 63 09 24 4672
627633.2748042688 1011627.1049461602 52.8 63 09 28 4672
627637.0733108328 1011604.4038589412 74.3 63 09 32 4672
627686.997420327 1011600.827227569 34.0 63 09 36 4672
627697.3029314203 1011601.5350150084 52.2 63 09 40 4672
627696.6686012149 1011600.593030138 50.9 63 09 41 4672
627702.8304693872 1011594.7189401932 45.7 63 09 44 4672
627686.4857167242 1011599.3437915152 61.9 63 09 48 4672
627695.820626367 1011597.7483627303 16.6 63 09 52 4672
627696.4970934102 1011599.2544466553 47.9 63 09 56 4672
627712.8091016578 1011642.2456794273 50.5 63 10 00 4672
627781.7641517393 1011686.9992047263 59.5 63 10 08 4672
627799.3737218076 1011729.6850537865 70.4 63 10 12 4672
627799.3382555242 1011730.4590066466 69.4 63 10 13 4672
627817.8183282329 1011775.8016261794 81.5 63 10 17 4672
627841.3126554699 1011833.7335260058 98.5 63 10 21 4672
627862.8894461476 1011859.3142873046 91.5 63 10 24 4672
627891.1123330273 1011885.591086749 93.7 63 10 28 4672
627892.1186513442 1011883.6370535098 90.4 63 10 29 4672
627933.4003499585 1011925.713902711 80.1 63 10 33 4672
627952.8773715784 1011954.926058711 98.7 63 10 36 4672
627978.210753112 1011977.5775915342 68.1 63 10 40 4672
628031.8862602176 1011982.7937271511 62.7 63 10 44 4672
628076.2105988332 1012021.8064485316 105.2 63 10 49 4672
628077.9487778707 1012017.8200945405 101.8 63 10 50 4672
628078.8226646495 1012026.2270921862 115.2 63 10 52 4672
628093.4766655598 1012034.6676401055 95.9 63 10 57 4672
628130.3539756911 1012038.6242083702 123.8 63 11 01 4672
628136.9260436394 1012045.2140138808 97.1 63 11 05 4672
628213.5216790476 1012054.7067296484 103.5 63 11 12 4672
628194.4011436008 1012112.2575890552 52.4 63 11 17 4672
628242.3552044281 1012109.4604763621 79.3 63 11 25 4672
628260.2666479538 1012096.0939746958 117.0 63 11 28 4672
628247.784532115 1012126.1758417361 100.5 63 11 37 4672
628252.0735085311 1012121.7775533468 115.0 63 11 40 4672
628278.5333349727 1012122.2946016173 98.8 63 11 44 4672
628328.506097003 1012103.5693789283 101.2 63 11 48 4672
628375.355546675 1012058.5157346566 67.1 63 11 52 4672
628395.2209805856 1012049.1918422951 86.5 63 11 56 4672
628410.7607860741 1012075.8702471581 94.8 63 12 00 4672
628433.7509921854 1012095.8163279439 110.8 63 12 08 4672
628422.1633400405 1012134.6701577689 97.5 63 12 12 4672
628413.8378876972 1012170.6152310492 160.5 63 12 16 4672
628425.8275015994 1012197.5032902735 137.5 63 12 20 4672
628415.5102443194 1012217.385491749 132.6 63 12 25 4672
628382.0958360629 1012257.0752477926 93.2 63 12 28 4672
628415.0257020476 1012275.2511154518 116.7 63 12 32 4672
628449.5794258169 1012246.8112037573 104.5 63 12 36 4672
628471.6002250173 1012243.7643183513 102.8 63 12 41 4672
628479.8439102095 1012253.312143393 88.3 63 12 44 4672
628483.0393674902 1012254.0302422321 84.6 63 12 48 4672
628505.9206197386 1012270.2604979386 87.1 63 12 52 4672
628506.3926732087 1012270.4057871538 92.8 63 12 53 4672
628515.5327509324 1012315.2209239728 86.7 63 12 56 4672
628528.5792959471 1012317.7845678449 86.5 63 13 00 4672
628517.5934210694 1012377.7171380969 85.6 63 13 08 4672
628523.868958435 1012384.2175959903 100.1 63 13 12 4672
628531.6734413644 1012393.6423712937 118.5 63 13 16 4672
628585.3992222087 1012396.747399717 90.9 63 13 20 4672
628565.4222391758 1012396.4723562939 76.1 63 13 24 4672
628586.3446690601 1012413.5256679083 108.0 63 13 28 4672
628583.4563407104 1012369.0404497102 95.8 63 13 32 4672
628573.0629268256 1012392.0518214859 87.3 63 13 36 4672
628579.3837140249 1012394.7705538645 97.3 63 13 40 4672
628586.1114587558 1012404.1365509876 97.7 63 13 44 4672
628580.554545416 1012399.6841729324 93.7 63 13 48 4672
628564.1068551509 1012419.1262028854 77.4 63 13 52 4672
628600.8914161768 1012431.2217507057 93.0 63 13 56 4672
628616.6639214375 1012420.0379682577 107.1 63 14 00 4672
628673.5105853034 1012426.5038871133 108.7 63 14 08 4672
628692.8941547762 1012416.647798764 94.7 63 14 12 4672
628782.9956265305 1012398.7835926206 97.2 63 14 16 4672
628807.5197463381 1012413.2611546257 69.4 63 14 20 4672
628792.2194546667 1012431.2692814525 72.6 63 14 24 4672
628749.3059339407 1012452.062632323 66.7 63 14 28 4672
628735.3768728198 1012470.8161355248 82.0 63 14 32 4672
628749.8254657805 1012501.7596218267 70.1 63 14 36 4672
628757.2916160834 1012547.575703847 101.6 63 14 40 4672
628754.6403641693 1012592.352557324 88.5 63 14 44 4672
628755.6643312698 1012622.1133587606 79.9 63 14 48 4672
628744.0971152192 1012691.7420089708 94.9 63 14 52 4672
628717.4782760293 1012740.1784851891 80.8 63 14 56 4672
628698.0423489508 1012806.6741847103 79.5 63 15 00 4672
628709.1339035706 1012802.1211607909 91.6 63 15 08 4672
628723.7799898207 1012822.9913287689 120.3 63 15 12 4672
628711.424156651 1012868.2231458335 86.2 63 15 16 4672
628739.9605544724 1012909.186967754 91.2 63 15 20 4672
628756.5317820477 1012919.2706745986 80.3 63 15 24 4672
628740.0531096222 1012955.0011681201 90.9 63 15 28 4672
628784.2023979176 1012945.9998842317 86.7 63 15 32 4672
628763.785732187 1012939.0994421819 85.2 63 15 36 4672
628831.5830491723 1012913.2009822779 117.5 63 15 40 4672
628770.322509836 1012986.8034655278 62.7 63 15 44 4672
628882.6210707559 1012968.6470383005 106.6 63 15 49 4672
628870.4722350199 1013014.3771183591 113.7 63 15 52 4672
628872.6573180952 1013048.5981624908 123.6 63 15 56 4672
628853.7553784221 1013123.1458852354 56.2 63 16 00 4672
628939.1912072222 1013167.4359610778 65.4 63 16 08 4672
628968.6935517626 1013201.8456777303 60.9 63 16 12 4672
628981.2435778659 1013241.9724505738 60.4 63 16 16 4672
628977.1358459875 1013244.7125252777 56.0 63 16 20 4672
628967.6003445876 1013237.1508020083 31.1 63 16 24 4672
629058.4462884942 1013236.4631921658 58.5 63 16 28 4672
629062.7944732233 1013187.0142456106 57.8 63 16 32 4672
629040.453418181 1013136.825722295 57.2 63 16 36 4672
629069.5966407206 1013086.0201759792 80.2 63 16 40 4672
629105.8285949789 1013078.6742475196 54.4 63 16 44 4672
629109.7695598447 1013056.3496366631 69.6 63 16 48 4672
629111.4146624266 1013050.6047669068 70.3 63 16 52 4672
629096.8914481647 1013009.022884313 79.1 63 16 56 4672
629076.4780400316 1012964.1264474868 85.2 63 17 00 4672
628994.7112011355 1012869.5998319645 119.4 63 17 08 4672
628945.4833751867 1012872.3364767317 108.2 63 17 12 4672
628900.8607154008 1012864.7045923898 110.4 63 17 16 4672
628876.8093965338 1012853.6122638697 135.6 63 17 20 4672
628906.9677708829 1012862.1700715153 103.3 63 17 24 4672
628903.0582542599 1012858.0326338795 112.3 63 17 28 4672
628885.1817224211 1012843.8530933722 108.0 63 17 32 4672
628814.1685518058 1012902.2409004505 84.8 63 17 36 4672
628796.7649679568 1012925.0303306492 125.0 63 17 40 4672
628797.8787512294 1012923.8286212372 124.6 63 17 45 4672
628796.3689428378 1012921.7890030335 124.8 63 17 49 4672
628791.6673399198 1012928.043655391 108.5 63 17 52 4672
628806.5686694297 1012917.7638944552 119.5 63 17 56 4672
628799.5885893556 1012925.1832860488 98.2 63 18 00 4672
628800.7523802363 1012925.4967059351 116.4 63 18 08 4672
628804.5966514507 1012926.0510804388 121.4 63 18 12 4672
628798.5853407662 1012919.440838547 113.3 64 06 00 4672
628798.3993618749 1012919.1858952167 111.6 64 06 24 4672
628799.3708331856 1012921.1905851141 110.5 64 06 28 4672
628800.6937617941 1012919.8789756856 111.7 64 06 32 4672
628799.1437820484 1012923.4235912849 110.8 64 06 36 4672
628802.3982678314 1012919.4974939654 111.3 64 06 40 4672
628783.8268199228 1012906.122980564 102.9 64 06 44 4672
628774.7214660851 1012921.6521329328 103.2 64 06 48 4672
628728.8074138043 1012932.6602663764 97.0 64 06 52 4672
628702.8529419287 1012952.5910010202 83.6 64 06 56 4672
628666.4841849917 1012934.4478374671 79.6 64 07 00 4672
628631.7252479333 1012965.2754032952 59.1 64 07 08 4672
628624.581562424 1012979.0858943873 73.0 64 07 12 4672
628606.025410218 1012981.2703229404 61.0 64 07 16 4672
628608.0223750025 1012955.1685478734 54.8 64 07 20 4672
628609.706718028 1012950.8502943354 72.7 64 07 24 4672
628639.2872334768 1012917.4735444217 78.5 64 07 28 4672
628656.7492157932 1012900.3460155005 80.9 64 07 32 4672
628664.307335046 1012850.3656907608 85.9 64 07 36 4672
628648.0548577253 1012853.751884091 78.3 64 07 40 4672
628614.0233317667 1012900.7930736602 71.3 64 07 44 4672
628553.3489364355 1012899.0365303205 82.3 64 07 48 4672
628491.7525865909 1012893.5615502045 68.4 64 07 52 4672
628447.5806557331 1012879.1087808033 93.8 64 07 56 4672
628413.2608425382 1012859.3691021524 92.5 64 08 00 4672
628368.8622382534 1012813.1788542992 105.0 64 08 09 4672
628351.5997738707 1012795.9605902088 84.4 64 08 13 4672
628294.9016671052 1012770.973186662 101.8 64 08 16 4672
628268.1951576623 1012745.0105185219 109.5 64 08 20 4672
628250.587331152 1012725.8338997096 118.0 64 08 24 4672
628249.6184952557 1012726.3947217452 121.8 64 08 28 4672
628174.0849202453 1012711.7189467676 107.7 64 08 32 4672
628169.1813779043 1012695.5471325406 47.4 64 08 36 4672
628151.1617668 1012698.2974914681 116.5 64 08 40 4672
628116.4831561506 1012690.8535803356 116.0 64 08 44 4672
628089.5872629444 1012685.9893373632 137.5 64 08 48 4672
628050.1340411226 1012636.1110742782 131.3 64 08 52 4672
628025.3523320312 1012592.5613705715 136.0 64 08 56 4672
628022.9737959951 1012573.721695009 87.1 64 09 00 4672
627967.9888666646 1012480.9983586262 109.2 64 09 05 4672
627933.7836775987 1012459.6229450471 98.8 64 09 09 4672
627906.887307941 1012400.4856289192 107.1 64 09 12 4672
627856.5018480736 1012353.303636346 129.2 64 09 16 4672
627825.6174513677 1012327.8143985665 99.6 64 09 21 4672
627782.8805414324 1012294.103900932 103.4 64 09 24 4672
627732.5477128315 1012216.9216339871 62.7 64 09 33 4672
627721.8838221688 1012204.7343461612 57.5 64 09 36 4672
627634.9911655153 1012106.8882768474 83.3 64 09 40 4672
627651.1587360994 1012054.9341823496 72.4 64 09 44 4672
627636.3397297704 1012046.5264512263 85.3 64 09 49 4672
627600.5760170681 1012038.0180024703 68.1 64 09 52 4672
627567.5440786494 1012020.6719162272 73.9 64 09 56 4672
627566.467604278 1012023.9416429116 77.7 64 10 00 4672
627588.5994336115 1012044.3930789938 99.0 64 10 08 4672
627576.4701299333 1012057.236654295 89.3 64 10 12 4672
627529.2848435174 1012060.2029248376 89.9 64 10 16 4672
627500.5488014405 1012060.154547055 82.5 64 10 20 4672
627503.9018496567 1012046.077337045 96.5 64 10 24 4672
627511.5415472357 1012028.2984205734 88.2 64 10 28 4672
627506.7727209344 1012034.9953174831 83.3 64 10 33 4672
627504.3580016673 1012047.7485795685 87.0 64 10 37 4672
627449.1532421545 1012019.239883554 90.2 64 11 00 4672
627439.1678043013 1012018.1350866518 99.1 64 11 20 4672
627426.953407471 1011999.4075709465 87.6 64 11 24 4672
627422.2439684438 1012001.3165133491 97.0 64 11 28 4672
627423.9245847604 1011994.7091855151 89.8 64 11 32 4672
627401.8756008865 1011979.212148644 107.7 64 11 36 4672
627417.3683638852 1011989.9883836069 86.1 64 11 40 4672
627410.0543044579 1012002.2061411991 163.8 64 11 44 4672
627422.9751104423 1011999.494282404 131.5 64 11 48 4672
627421.5037802102 1012023.0101091 115.0 64 12 00 4672
627414.2969637078 1012039.4634606009 91.1 64 12 08 4672
627419.2961926227 1012063.5862033474 105.0 64 12 20 4672
627419.5267207562 1012077.3100400212 104.9 64 12 24 4672
627436.0129700783 1012069.6224703046 148.7 64 12 28 4672
627567.1835715355 1012043.8706451798 90.5 64 12 36 4672
627572.5419969353 1012024.7242358822 87.5 64 12 40 4672
627563.2030493801 1012037.8311481754 103.8 64 12 44 4672
627558.9047039569 1012031.5252327805 96.5 64 12 48 4672
627564.9046687976 1012031.5335178627 99.3 64 12 52 4672
627569.277549854 1012024.9459310928 92.7 64 13 00 4672
627595.9758005232 1012009.4622121233 78.5 64 13 16 4672
627589.5505521517 1012011.8411009088 76.2 64 13 20 4672
627584.7299951859 1012027.7602783678 76.8 64 13 24 4672
627576.3809564456 1012050.8116111216 78.3 64 13 28 4672
627584.8338403417 1012056.8987052877 96.9 64 13 32 4672
627578.2432180373 1012052.6311439566 82.1 64 13 36 4672
627560.7546391471 1012067.8459925872 123.8 64 13 40 4672
627532.7963911232 1012048.0945682032 84.9 64 13 44 4672
627518.8173531566 1012045.0085367211 76.0 64 13 48 4672
627504.7313414828 1012030.7866625044 61.5 64 13 52 4672
627489.7561411299 1012023.0972644072 89.4 64 13 56 4672
627488.7350302782 1012022.8285800663 152.4 64 14 00 4672
627421.3260441861 1011996.3042411151 81.8 64 14 08 4672
627400.4629082558 1011998.1722290074 75.9 64 14 12 4672
627405.963759653 1011996.1994837511 67.2 64 14 16 4672
627414.6578473368 1011988.8185558033 56.6 64 14 20 4672
627404.2852044157 1011985.1028121407 85.3 64 14 24 4672
627455.1807101687 1011952.711685733 123.7 64 14 28 4672
627439.6453981161 1011927.8472883779 71.9 64 14 32 4672
627443.7590447876 1011906.2087889399 71.0 64 14 36 4672
627442.2661441574 1011892.06067944 76.7 64 14 40 4672
627463.1209056893 1011862.105120096 77.7 64 14 44 4672
627474.7115934507 1011811.7838917885 72.8 64 14 48 4672
627469.4275197479 1011780.5609311941 70.2 64 14 52 4672
627438.870848783 1011762.2830236778 55.3 64 14 56 4672
627403.7242892903 1011718.9990824214 53.4 64 15 00 4672
627391.7241815533 1011712.181847791 40.9 64 15 08 4672
627389.9633408021 1011716.400371103 58.8 64 15 12 4672
627420.2837173007 1011712.5170563926 74.0 64 15 16 4672
627421.8986455806 1011719.4888531503 69.5 64 15 20 4672
627412.26013997 1011723.2396920292 69.9 64 15 21 4672
627406.5960248838 1011734.9540939514 58.1 64 15 24 4672
627404.2551589549 1011748.6696500907 77.0 64 15 29 4672
627425.1728099548 1011712.8424225864 66.2 64 15 33 4672
627445.6412946787 1011697.0731354689 94.5 64 15 36 4672
627361.8941269433 1011710.5377169795 10.5 64 15 40 4672
627430.0797964395 1011680.3031976401 57.9 64 15 44 4672
627463.5842907145 1011663.6248914639 68.8 64 15 48 4672
627487.7760910006 1011655.309708251 62.3 64 15 52 4672
627479.498186129 1011663.1011198418 56.8 64 15 56 4672
627478.3644336188 1011663.6835474425 46.8 64 16 00 4672
627477.6665009976 1011665.4284784732 50.5 64 16 08 4672
627456.2425703229 1011667.3499437214 56.9 64 16 12 4672
627457.1443294232 1011670.5596943366 42.9 64 16 16 4672
627465.6263460049 1011674.4573404988 44.5 64 16 20 4672
627470.5176813946 1011667.26321552 62.5 64 16 24 4672
627459.5245222321 1011671.9385623072 56.7 64 16 28 4672
627455.9308909344 1011668.5874464918 69.2 64 16 32 4672
627459.464477597 1011666.696832932 60.0 64 16 36 4672
627435.5863515426 1011697.0518193046 93.2 64 16 40 4672
627433.2916741853 1011699.8310706189 75.1 64 16 44 4672
627404.9651068219 1011722.707537035 59.5 64 16 48 4672
627397.3900542328 1011734.0619299139 50.4 64 16 52 4672
627397.2808329604 1011723.6116823739 64.8 64 16 56 4672
627401.9916221569 1011745.1901232119 67.6 64 17 00 4672
627409.7317683477 1011730.3419058025 73.6 64 17 08 4672
627395.0611162623 1011716.7595795328 60.3 64 17 12 4672
627398.659391248 1011725.4959950726 60.5 64 17 16 4672
627414.3265311124 1011733.3423816357 55.3 64 17 20 4672
627414.6244433296 1011732.9673655573 59.2 64 17 24 4672
627413.9113357085 1011732.600152908 53.5 64 17 28 4672
627407.9945403263 1011757.94836796 130.0 64 17 32 4672
627407.36275937 1011759.6271641039 126.5 64 17 33 4672
627430.4167985703 1011749.7048685756 63.2 64 17 36 4672
627439.0922788552 1011758.3581137677 74.2 64 17 40 4672
627453.0928747786 1011751.3702494676 62.6 64 17 45 4672
627471.5832785803 1011749.2624106953 75.4 64 17 49 4672
627452.4859254337 1011758.9873211106 71.9 64 17 52 4672
627469.512257692 1011744.0142042405 85.3 64 17 56 4672
627468.5003120045 1011744.3095136912 78.4 64 18 00 4672
627478.4121220093 1011747.8247364411 95.4 64 18 08 4672
627472.5540938948 1011737.8535846368 70.6 65 06 00 4672
627473.7017536607 1011736.364438233 66.6 65 06 08 4672
627473.6498716964 1011735.4132750739 64.6 65 06 20 4672
627467.493581241 1011739.5734073857 76.2 65 06 24 4672
627465.063601956 1011746.83074901 73.9 65 06 28 4672
627459.7398692537 1011744.9779607217 64.8 65 06 32 4672
627476.3197938662 1011728.7206693037 61.6 65 06 36 4672
627438.2426750557 1011721.8857890257 47.3 65 06 40 4672
627399.1654885206 1011725.3096365376 50.1 65 06 44 4672
627392.0041029758 1011724.2250095472 60.3 65 06 48 4672
627390.979211176 1011725.1284742891 51.5 65 06 52 4672
627407.357984982 1011750.86914027 65.8 65 06 56 4672
627402.6899221048 1011750.1574539746 46.6 65 07 00 4672
627385.2268833899 1011760.8386512663 57.1 65 07 09 4672
627397.3358361428 1011754.3201782488 44.1 65 07 12 4672
627427.8358423207 1011742.4203342363 115.6 65 07 16 4672
627395.8627578388 1011737.4186735941 46.7 65 07 20 4672
627387.7956596672 1011720.6949916799 57.2 65 07 24 4672
627398.0545449312 1011722.220853285 68.1 65 07 28 4672
627407.4047530602 1011726.0991660764 58.7 65 07 32 4672
627409.8479331711 1011724.979105401 72.0 65 07 36 4672
627399.4648673169 1011734.7210356754 55.2 65 07 40 4672
627424.12717597 1011778.2144964358 46.6 65 07 44 4672
627416.768083084 1011783.9299536562 48.2 65 07 45 4672
627439.6398306517 1011779.4255434759 60.3 65 07 48 4672
627478.384989408 1011776.7194488712 102.5 65 07 53 4672
627500.4495118301 1011797.6571489619 83.6 65 07 56 4672
627497.6810902809 1011828.1022241574 66.0 65 08 00 4672
627508.1791739535 1011902.0372998822 70.0 65 08 13 4672
627570.5597757994 1011896.4991930099 114.2 65 08 16 4672
627565.5468659721 1011920.9546043066 72.6 65 08 20 4672
627601.390573138 1011928.5454420882 92.0 65 08 24 4672
627586.0972233921 1011961.5819630114 62.3 65 08 28 4672
627573.6998663135 1012026.884298318 86.5 65 08 32 4672
627542.8491094832 1012048.7793991895 87.7 65 08 37 4672
627534.4490131848 1012039.9500769905 107.6 65 08 41 4672
627472.614942354 1012036.2343464051 129.5 65 08 45 4672
627451.4710754693 1012012.6788411931 101.6 65 08 48 4672
627414.4640216726 1011990.996376015 129.4 65 08 52 4672
627393.4774068936 1012003.9110045675 94.4 65 08 56 4672
627395.5525734756 1012001.0425816585 75.7 65 09 00 4672
627412.8398960049 1011993.7114372053 82.3 65 09 08 4672
627418.7483065289 1011998.2642809261 122.1 65 09 12 4672
627431.9523633359 1011989.4935015835 107.8 65 09 16 4672
627431.3764335611 1011987.47907378 128.6 65 09 17 4672
627442.6698097165 1011995.3335175718 85.3 65 09 20 4672
627437.2370571743 1011989.8090896319 97.1 65 09 25 4672
627431.0455410163 1011991.270934286 107.8 65 09 28 4672
627446.4047984793 1011985.492785279 107.7 65 09 32 4672
627428.2914402317 1011986.5734332812 105.3 65 09 36 4672
627412.7611490907 1011960.1498715845 101.2 65 09 41 4672
627409.1531303428 1011978.3398750371 103.8 65 09 45 4672
627411.7218420331 1011965.5318163532 81.7 65 09 52 4672
627420.9459476416 1011971.013157826 82.6 65 09 57 4672
627425.5925891403 1011985.1935385114 55.6 65 10 01 4672
627456.4106495378 1011959.7928277047 75.5 65 10 05 4672
627463.4103464673 1011970.1215184821 78.3 65 10 08 4672
627489.1555746725 1011953.6947205543 92.0 65 10 13 4672
627489.696104871 1011970.106675908 94.4 65 10 16 4672
627518.5981799418 1011932.2926498131 85.0 65 10 21 4672
627520.723871872 1011927.3897049818 84.8 65 10 24 4672
627536.6345159687 1011914.2044381356 78.3 65 10 29 4672
627570.1581310902 1011891.5549283933 76.6 65 10 32 4672
627588.729074709 1011901.943063003 77.0 65 10 36 4672
627618.5683342555 1011897.2842972717 76.0 65 10 41 4672
627667.7977411668 1011904.5534461327 66.4 65 10 45 4672
627674.643304379 1011911.5531938263 83.1 65 10 48 4672
627699.1842026252 1011907.408183492 78.4 65 10 52 4672
627719.893928345 1011942.8830659862 74.5 65 10 56 4672
627720.6555856796 1011945.2298423087 75.5 65 10 57 4672
627731.1821017878 1011972.765324468 122.6 65 11 01 4672
627692.5156497082 1011971.5568351742 91.8 65 11 05 4672
627686.8356277107 1011991.5868465452 69.5 65 11 09 4672
627700.9319611818 1011985.5724960306 77.7 65 11 12 4672
627722.4528120458 1011997.8390437947 59.4 65 11 16 4672
627736.5085685893 1012000.9917432863 100.2 65 11 21 4672
627731.5688339054 1012050.4055248363 112.5 65 11 29 4672
627709.8320466002 1012074.4088519681 51.6 65 11 41 4672
627710.0254159842 1012079.1865771061 41.5 65 11 44 4672
627717.9185722243 1012098.6632610589 85.3 65 11 48 4672
627687.9596905378 1012075.7315803396 33.9 65 11 52 4672
627696.8752902235 1012091.6619069926 46.9 65 11 56 4672
627721.2082304052 1012104.2471651086 55.9 65 12 00 4672
627769.3259196916 1012101.7928120549 68.7 65 12 08 4672
627814.9582053602 1012082.9202553071 68.1 65 12 12 4672
627838.7066224073 1012068.9421241222 92.1 65 12 16 4672
627880.0024660177 1012058.9905759798 73.3 65 12 20 4672
627924.5456708533 1012047.3134436754 91.6 65 12 24 4672
627947.0333065586 1012015.4503261844 63.7 65 12 28 4672
627963.1054633942 1012020.3236369673 72.6 65 12 32 4672
627972.1275651146 1012033.8768878408 94.0 65 12 36 4672
627966.6862575787 1012041.2129348692 80.8 65 12 40 4672
627993.4801477761 1012074.3523025223 86.4 65 12 44 4672
627998.189380374 1012062.325250205 92.6 65 12 48 4672
627997.6735307559 1012072.3201168564 84.6 65 12 52 4672
628040.3818936246 1012077.5339777812 80.9 65 12 56 4672
628077.9902275172 1012079.7014525016 87.6 65 13 00 4672
628084.254827293 1012062.4600105195 105.6 65 13 08 4672
628094.1231200839 1012014.8867604441 82.4 65 13 12 4672
628100.3617450541 1012002.2785865925 86.2 65 13 16 4672
628120.1522383115 1011995.7188481917 82.3 65 13 20 4672
628129.4593406242 1011999.2986406006 102.5 65 13 24 4672
628130.8577967945 1011998.4185194859 102.3 65 13 25 4672
628124.4937599228 1011988.6667679664 81.8 65 13 28 4672
628164.3102483032 1012004.6309399415 92.7 65 13 32 4672
628196.0263212279 1012004.0923104759 88.7 65 13 36 4672
628204.6226970489 1012037.0954806462 121.5 65 13 41 4672
628218.6899349464 1012073.9977845508 86.7 65 13 44 4672
628244.8340439552 1012083.7804903752 98.2 65 13 48 4672
628240.3895861189 1012085.2921057757 101.9 65 13 53 4672
628249.1933468444 1012098.3692273442 99.1 65 13 57 4672
628263.9090848679 1012111.476575309 131.8 65 14 01 4672
628238.8648185611 1012101.4099073932 100.7 65 14 04 4672
628241.7500860306 1012096.1224181784 98.7 65 14 08 4672
628231.5453209211 1012128.7882130166 98.5 65 14 28 4672
628224.2363824327 1012122.3950457763 99.9 65 14 32 4672
628235.0919758411 1012119.4777103924 110.6 65 14 36 4672
628231.5743374286 1012123.2260711188 107.3 65 14 40 4672
628237.3770825542 1012112.8834172843 92.9 65 14 44 4672
628243.2666784095 1012116.4300485619 116.7 65 14 48 4672
628233.0344871248 1012099.9202801024 108.4 65 14 52 4672
628245.8921736006 1012089.5783767974 90.6 65 14 56 4672
628248.5704848929 1012066.7741494786 100.2 65 15 00 4672
628236.6575073851 1012043.3144328113 90.1 65 15 08 4672
628253.660794419 1012038.9131198401 93.3 65 15 12 4672
628293.2412510202 1012019.1921010637 97.1 65 15 16 4672
628298.2334444256 1012011.4344258463 90.9 65 15 20 4672
628319.9880392336 1012026.1238116019 93.8 65 15 24 4672
628319.2218433218 1012028.5762307378 92.0 65 15 25 4672
628364.1234918928 1012048.7481413749 82.6 65 15 28 4672
628364.1468642573 1012068.6417886509 83.2 65 15 32 4672
628371.9249087673 1012076.0870273378 115.9 65 15 36 4672
628341.7054160365 1012116.6497247036 93.1 65 15 40 4672
628348.9120667619 1012134.2444671359 102.9 65 15 44 4672
628308.5869673514 1012132.8530425947 86.0 65 15 48 4672
628298.4748319909 1012133.550085728 96.5 65 15 53 4672
628271.3333438522 1012146.6986551535 124.1 65 15 57 4672
628241.8795163926 1012137.5576263306 93.5 65 16 00 4672
628216.9190665134 1012162.6671308373 92.7 65 16 08 4672
628207.3557254777 1012187.3068099652 84.8 65 16 12 4672
628195.522371906 1012196.9332622351 94.1 65 16 16 4672
628185.2246135321 1012224.4014437147 83.8 65 16 20 4672
628197.6837102427 1012235.3119508105 122.7 65 16 24 4672
628173.9301133096 1012237.3028505647 140.4 65 16 28 4672
628158.9224134095 1012243.0929162075 110.9 65 16 32 4672
628114.5997754175 1012254.5603765792 107.4 65 16 36 4672
628114.6574429828 1012229.9673053586 143.1 65 16 40 4672
628093.0433089451 1012236.3994878549 117.6 65 16 44 4672
628093.9287862763 1012237.8288523407 128.1 65 16 48 4672
628101.1426065258 1012249.839212443 135.4 65 16 52 4672
628096.9340959032 1012249.7592358814 142.7 65 16 56 4672
628095.2866651783 1012249.4774483793 124.1 65 17 00 4672
628092.9586495864 1012242.1826098625 134.3 65 17 24 4672
628094.911333355 1012243.2173377288 139.2 65 17 28 4672
628091.7190588424 1012241.5151089788 128.8 65 18 00 4672
628103.8406419068 1012244.6727495574 130.0 66 06 32 4672
628099.3087317852 1012242.6565547268 135.7 66 06 36 4672
628105.8208313317 1012233.8200888776 117.6 66 06 40 4672
628095.2858636111 1012229.3627275353 120.3 66 06 44 4672
628106.8702280626 1012221.9581251964 121.7 66 06 48 4672
628094.9446469164 1012219.3540251746 105.8 66 06 53 4672
628097.5941719194 1012188.4441042515 103.1 66 06 56 4672
628083.9011420358 1012161.5285425683 109.4 66 07 01 4672
628048.7568318485 1012178.98612631 104.0 66 07 04 4672
628030.2101410157 1012171.3623498036 98.4 66 07 08 4672
628030.6373824382 1012171.7728827298 100.4 66 07 09 4672
628022.5322141234 1012163.5304736766 98.3 66 07 12 4672
627997.8038043128 1012140.7481516427 93.3 66 07 16 4672
627992.6090523889 1012146.6032045393 94.1 66 07 20 4672
627951.1016334732 1012130.2466920884 95.0 66 07 24 4672
627919.6320929775 1012129.3487468944 88.6 66 07 28 4672
627878.478582318 1012115.6805820046 78.3 66 07 32 4672
627844.8040715232 1012096.5960398417 86.5 66 07 36 4672
627823.0469890401 1012106.4559247178 67.7 66 07 40 4672
627759.2420212459 1012090.3482834869 54.5 66 07 44 4672
627724.1227898307 1012076.2463945764 18.1 66 07 49 4672
627723.5867279283 1012095.9280904297 64.0 66 07 52 4672
627729.0394266222 1012091.8541942597 92.5 66 07 57 4672
627695.3411086434 1012076.7174574338 108.3 66 08 01 4672
627609.1542053954 1012046.1401964742 76.9 66 08 05 4672
627580.9765392629 1012026.2774485281 80.7 66 08 08 4672
627571.8798117465 1012025.606748829 86.3 66 08 12 4672
627582.8259092323 1012021.8712299676 85.9 66 08 16 4672
627583.2257877092 1012020.5455474156 92.6 66 08 20 4672
627584.6759143427 1012013.860073125 106.6 66 08 24 4672
627569.968653612 1012032.1359235022 90.3 66 08 28 4672
627575.5778040041 1012034.0670594356 99.0 66 08 32 4672
627577.2096922181 1012035.7642102314 92.6 66 08 36 4672
627591.3883732688 1012031.4640956891 115.4 66 08 40 4672
627589.2552464388 1012031.8553087922 113.5 66 08 41 4672
627559.3810312009 1012054.206928499 86.8 66 08 44 4672
627517.2099961519 1012049.3381305536 105.8 66 08 48 4672
627510.9021741503 1012032.3325654472 67.7 66 08 52 4672
627435.9798647524 1012038.9582684619 102.1 66 08 56 4672
627409.5063428679 1012049.5219571394 78.5 66 09 00 4672
627395.4723570298 1012046.4357934337 155.3 66 09 08 4672
627417.9404707965 1012013.6656035192 84.2 66 09 16 4672
627430.9448709568 1012005.4692024012 79.4 66 09 20 4672
627419.2480124675 1012003.474252006 72.5 66 09 24 4672
627417.994410021 1011990.0899223795 115.0 66 09 28 4672
627416.6211689449 1011986.5579687019 123.3 66 09 29 4672
627435.5758008957 1012000.640671405 85.4 66 09 33 4672
627419.5482801488 1011992.1296152051 121.5 66 09 37 4672
627426.0897992306 1012008.2402065749 90.4 66 09 40 4672
627428.851478288 1012003.7595142837 92.0 66 09 44 4672
627401.3709395139 1011996.018824537 98.5 66 09 56 4672
627393.0884882053 1012005.2477816099 72.1 66 10 00 4672
627408.0122405117 1011987.9678003871 83.6 66 10 09 4672
627385.7697238851 1011991.6227660199 95.7 66 10 12 4672
627407.4116933888 1011997.0113866534 93.6 66 10 16 4672
627382.832954976 1012012.9443712612 80.5 66 10 20 4672
627399.5931772024 1012029.3864243577 92.0 66 10 24 4672
627403.3816694657 1012057.5304111532 117.7 66 10 28 4672
627409.5026674218 1012043.8380853944 104.8 66 10 32 4672
627443.252519786 1012029.3611502689 92.1 66 10 48 4672
627421.7545276515 1012040.6928081951 93.8 66 10 52 4672
627432.7308701067 1011996.8496410801 87.1 66 11 00 4672
627425.1040634804 1011993.5740001531 113.7 66 11 08 4672
627411.4796327375 1011999.8000664326 106.9 66 11 13 4672
627398.7753071479 1012000.1240778648 95.9 66 11 16 4672
627391.2345829067 1012000.8296341136 82.7 66 11 20 4672
627401.3553829164 1011990.6113671587 88.9 66 11 24 4672
627403.5478473697 1011975.2034451446 62.9 66 11 28 4672
627389.9549462302 1011985.2888948265 102.7 66 11 32 4672
627398.7133750464 1011985.2286278389 88.2 66 11 36 4672
627411.625172222 1011995.5542273509 68.4 66 11 40 4672
627409.8918605685 1012018.5273634357 94.8 66 11 44 4672
627430.4842381934 1012018.836954305 80.3 66 11 48 4672
627432.9310703056 1012016.5779252078 88.2 66 11 52 4672
627436.0091042977 1012029.8796673875 68.0 66 11 56 4672
627445.0881106055 1012039.4631027245 89.9 66 12 00 4672
627460.3620344555 1012080.6373580116 81.5 66 12 08 4672
627473.1130992849 1012093.0856207008 119.9 66 12 12 4672
627481.4674900217 1012126.3310588788 84.3 66 12 16 4672
627473.9005837961 1012131.7583191592 83.1 66 12 20 4672
627465.4647412838 1012137.4371172992 85.8 66 12 25 4672
627463.5738286936 1012158.1538965888 84.4 66 12 28 4672
627450.4076110031 1012155.1921426001 112.0 66 12 32 4672
627422.9118365742 1012159.0402570409 88.9 66 12 36 4672
627413.4669533658 1012157.2958336811 102.1 66 12 40 4672
627372.2808594543 1012112.7649728198 119.4 66 12 45 4672
627370.2460238073 1012116.7614513879 116.1 66 12 49 4672
627350.279725728 1012123.387323973 101.1 66 12 52 4672
627348.8111353079 1012122.1662067921 88.5 66 12 56 4672
627341.8449171103 1012121.922622778 80.4 66 13 00 4672
627328.6995834657 1012074.9055462792 99.6 66 13 08 4672
627327.033560872 1012066.7393141228 104.3 66 13 12 4672
627326.7239430409 1012053.6787130786 102.0 66 13 16 4672
627334.1564540067 1012028.5454758313 98.7 66 13 20 4672
627350.0343099523 1012028.9283185671 108.1 66 13 24 4672
627359.687543709 1012020.5773556688 99.3 66 13 29 4672
627381.6497667215 1012028.8863310074 93.1 66 13 32 4672
627393.1411281044 1012033.2691574068 81.3 66 13 36 4672
627386.6176758994 1012025.1978636918 63.4 66 13 40 4672
627408.5953322084 1012032.1246430972 85.0 66 13 44 4672
627405.0320769479 1011998.8725423551 69.6 66 13 48 4672
627425.1523714858 1011981.9852737956 73.1 66 13 52 4672
627427.9524583658 1011986.0526112426 72.2 66 13 53 4672
627439.3861584918 1011987.8697865447 81.8 66 13 56 4672
627428.5190790033 1011994.3701223307 85.1 66 14 00 4672
627428.2602627226 1011975.7806336099 88.5 66 14 08 4672
627436.776028546 1011948.7046703766 76.3 66 14 12 4672
627427.9395429512 1011928.638948887 74.9 66 14 16 4672
627408.3260086033 1011931.4730151766 72.5 66 14 20 4672
627390.5691755941 1011934.4457650504 68.5 66 14 24 4672
627391.474499119 1011922.8929734757 58.4 66 14 28 4672
627385.9875424037 1011913.7192102246 57.7 66 14 32 4672
627385.7980714404 1011887.2344710671 61.1 66 14 36 4672
627411.0227368884 1011872.0776252238 67.0 66 14 40 4672
627411.1389039275 1011846.235237724 64.7 66 14 44 4672
627431.4702790725 1011797.9436597474 72.4 66 14 48 4672
627405.3444637856 1011744.8249407619 48.3 66 14 52 4672
627392.7778408331 1011712.5833303259 54.1 66 14 56 4672
627398.0438506487 1011705.0586617412 72.4 66 15 00 4672
627386.0002180933 1011739.0788177825 50.5 66 15 08 4672
627389.0865304489 1011732.7524651836 39.4 66 15 12 4672
627424.7914740499 1011742.5432299334 81.6 66 15 16 4672
627418.7225796115 1011743.4525714105 73.7 66 15 17 4672
627412.5141528223 1011716.0195759874 65.2 66 15 20 4672
627404.3694279903 1011709.7565948383 81.5 66 15 24 4672
627404.7096067964 1011703.0786027876 74.7 66 15 28 4672
627382.8024162207 1011715.1719923283 51.8 66 15 32 4672
627393.3140039609 1011706.4699318347 52.6 66 15 36 4672
627437.1277979513 1011696.1279024413 93.3 66 15 41 4672
627411.6818903044 1011698.0474983789 76.0 66 15 44 4672
627406.7311852014 1011703.2067489957 55.5 66 15 48 4672
627404.5099473923 1011693.4131885162 54.1 66 15 52 4672
627438.1464034949 1011683.5249568602 71.7 66 15 56 4672
627409.131181532 1011681.3636861935 22.4 66 16 00 4672
627453.1038171187 1011666.068156301 92.3 66 16 09 4672
627451.918587233 1011662.1608332573 57.5 66 16 12 4672
627440.2921283839 1011655.3337302688 52.2 66 16 16 4672
627447.7609559186 1011659.9137116184 60.2 66 16 20 4672
627430.4504171325 1011664.1706348067 45.0 66 16 24 4672
627415.0277344153 1011672.5472520113 26.6 66 16 28 4672
627467.1719582038 1011689.3022789601 13.4 66 16 32 4672
627419.6823324484 1011738.8886692488 42.9 66 16 36 4672
627398.4127051882 1011720.1983754619 61.1 66 16 40 4672
627393.9433384982 1011715.7939279154 52.7 66 16 44 4672
627370.9903064244 1011718.2302439732 29.2 66 16 48 4672
627381.9376334212 1011714.1297486844 70.7 66 16 52 4672
627385.4653317082 1011717.4806453917 48.5 66 16 56 4672
627369.7080852098 1011717.1424249342 59.5 66 17 00 4672
627395.9059133463 1011730.8392483748 66.7 66 17 08 4672
627417.6471458997 1011746.4016197587 78.2 66 17 12 4672
627438.0144226506 1011762.0591042258 73.0 66 17 16 4672
627450.2966667913 1011776.8059173237 75.0 66 17 20 4672
627424.0913132459 1011782.5270369445 74.4 66 17 24 4672
627465.8385975019 1011799.6356422646 64.4 66 17 29 4672
627455.8244054734 1011814.2664227847 85.7 66 17 33 4672
627437.9960422905 1011832.6096772858 104.2 66 17 36 4672
627454.936738355 1011833.9801449247 100.4 66 17 40 4672
627480.5072555554 1011858.1691503467 80.8 66 17 44 4672
627482.1276318404 1011866.8549744372 74.0 66 17 48 4672
627492.8967587521 1011870.3066182679 79.8 66 17 52 4672
627507.9577788028 1011875.2538783901 100.7 66 18 00 4672
627537.4528330413 1011875.1056447118 82.3 66 18 08 4672
627546.9351576425 1011882.3018520599 77.2 66 18 12 4672
627548.2009508479 1011881.6645621178 79.7 66 18 13 4672
627557.4806417595 1011907.4045491568 74.7 66 18 16 4672
627557.751418681 1011912.0387649267 93.4 66 18 20 4672
627555.3294613395 1011967.9407007066 103.5 66 18 24 4672
627538.6690942588 1012015.9897235776 111.9 66 18 28 4672
627549.0869849718 1012015.8906071872 99.1 67 06 00 4672
627551.1233507601 1012014.835594063 92.0 67 06 28 4672
627552.420431368 1012014.7181362165 91.6 67 06 32 4672
627549.7581268197 1012015.6384343688 99.2 67 06 36 4672
627555.5050927403 1012025.9520497756 90.1 67 06 40 4672
627581.531281575 1012017.8197913046 103.1 67 06 44 4672
627566.7920741951 1012028.9630658162 75.1 67 06 48 4672
627580.0523887716 1012019.7944226373 73.4 67 06 52 4672
627571.3984318675 1012052.2109829042 89.3 67 06 56 4672
627553.0259662465 1012041.6354993361 68.6 67 07 00 4672
627500.9783967368 1012032.5549225803 88.5 67 07 08 4672
627464.5371239851 1012016.0494160941 82.0 67 07 12 4672
627424.5703230492 1011988.6956621452 92.7 67 07 16 4672
627392.6993439394 1012010.0678570312 71.0 67 07 20 4672
627409.5239715339 1011989.4433943211 85.4 67 07 24 4672
627416.8791989643 1011998.5678887591 93.5 67 07 28 4672
627428.0361377506 1011994.1916375764 92.1 67 07 32 4672
627422.9306708438 1011996.2320017386 85.4 67 07 36 4672
627420.4741162246 1012018.5724978026 111.4 67 07 40 4672
627435.363657207 1012018.7420879364 94.8 67 07 44 4672
627450.8863680498 1012016.801627089 93.3 67 07 48 4672
627474.3835281162 1011988.6791761429 95.9 67 07 52 4672
627473.7959907261 1011976.6239596633 80.0 67 07 57 4672
627479.5315968279 1011949.5390457645 92.9 67 08 01 4672
627480.1776453076 1011946.842951813 88.0 67 08 05 4672
627484.7910988377 1011940.6210487593 74.7 67 08 08 4672
627495.4166765711 1011937.4594923184 83.1 67 08 12 4672
627505.6668749584 1011948.4842662306 83.3 67 08 16 4672
627507.093472551 1011949.0970583161 79.1 67 08 20 4672
627505.4813945447 1011934.4288284946 97.0 67 08 24 4672
627509.5594046019 1011930.6822159435 97.2 67 08 29 4672
627497.9755703777 1011893.6002714998 68.7 67 08 32 4672
627498.8348791869 1011892.9284962199 67.7 67 08 33 4672
627475.1109283803 1011875.446627587 79.4 67 08 37 4672
627461.3190069278 1011862.0108517609 82.4 67 08 40 4672
627437.5866675728 1011894.8985979769 74.6 67 08 44 4672
627426.9534299232 1011900.4376360696 31.8 67 08 49 4672
627376.7381210866 1011912.6831505887 162.7 67 08 53 4672
627364.4339151363 1011901.3532367628 108.8 67 08 57 4672
627381.4257933106 1011876.5714551909 106.9 67 09 00 4672
627391.9307460934 1011825.5390036826 41.5 67 09 05 4672
627392.6614162745 1011789.724198053 55.6 67 09 09 4672
627390.2386884993 1011723.0361117261 46.9 67 09 13 4672
627399.7923236466 1011711.5111565961 60.1 67 09 16 4672
627394.3976853717 1011731.6858668458 58.6 67 09 20 4672
627401.4628770298 1011755.8263050201 70.0 67 09 24 4672
627406.01837509 1011747.127193098 60.7 67 09 28 4672
627403.7872363032 1011767.7212353138 58.0 67 09 32 4672
627422.3114807338 1011816.5359984968 73.7 67 09 36 4672
627450.0611305484 1011819.235062693 77.8 67 09 41 4672
627444.3003353879 1011826.8465955302 73.2 67 09 44 4672
627463.337439849 1011818.7580891298 116.9 67 09 48 4672
627493.28125992 1011825.9980699539 152.9 67 09 52 4672
627460.3813132945 1011900.6669286315 95.2 67 09 56 4672
627460.0500920847 1011948.9123273796 93.4 67 10 01 4672
627426.7207501021 1012017.0555391058 87.2 67 10 05 4672
627412.2832978135 1012012.9949592738 94.7 67 10 08 4672
627419.461857716 1012001.9046913773 94.5 67 10 12 4672
627407.5587595957 1012002.5298485331 114.6 67 10 16 4672
627410.4601319699 1012005.8566186376 107.1 67 10 17 4672
627423.5607536801 1012008.7296763872 77.5 67 10 21 4672
627405.1665101624 1011987.8369986354 98.9 67 10 25 4672
627407.1217593943 1012022.2118468625 99.5 67 10 29 4672
627406.7652639376 1012016.891756256 104.5 67 10 33 4672
627408.6258786313 1012005.5742601105 80.0 67 10 36 4672
627424.2589707559 1012013.7191250569 90.8 67 10 40 4672
627434.2079885332 1012015.8964358164 94.1 67 10 44 4672
627449.7636528767 1012031.0187203616 84.8 67 10 48 4672
627477.3851838224 1012066.6152453967 91.6 67 10 52 4672
627502.2106874217 1012086.6440439333 68.2 67 10 57 4672
