627823.5020297627 1013895.9476550132 70.4 68 12 52 4668
627814.8945506834 1013886.8410824988 60.8 68 12 57 4668
627848.5025365318 1013919.1842802055 84.8 68 13 00 4668
627857.1754701424 1013921.6451439874 87.6 68 13 12 4668
627853.7292320266 1013933.9416742431 107.0 68 13 16 4668
627848.4847839081 1013917.8793646389 90.9 68 13 20 4668
627856.3833769889 1013921.9300907233 74.5 68 13 24 4668
627873.0242068289 1013917.217918394 84.8 68 13 28 4668
627862.3949493979 1013914.8723566348 71.5 68 13 36 4668
627868.2950491091 1013925.2750340342 95.2 68 13 40 4668
627860.1426870032 1013921.5441692051 94.6 68 13 44 4668
627857.4751228227 1013927.5179757337 72.7 68 14 00 4668
627849.3622358642 1013931.9591913436 82.0 68 14 20 4668
627857.6383223799 1013948.3851763512 88.0 68 14 24 4668
627854.8989072433 1013976.5523969891 81.0 68 14 28 4668
627887.4401274265 1014005.7406248233 79.7 68 14 32 4668
627893.1442048375 1014015.5897680911 79.0 68 14 36 4668
627891.162547149 1014033.7076114486 76.7 68 14 40 4668
627900.8472111626 1014032.5225849812 63.2 68 14 44 4668
627899.1489613958 1014047.954222748 71.8 68 14 48 4668
627911.4379206919 1014050.1503618996 86.9 68 14 52 4668
627912.1860962104 1014063.4225324868 78.2 68 14 56 4668
627905.4353394356 1014101.9271636736 89.6 68 15 00 4668
627951.0943716295 1014152.146279739 98.8 68 15 08 4668
627938.1639077909 1014168.2050079212 76.7 68 15 12 4668
627938.0481722029 1014173.4019512273 84.6 68 15 13 4668
627937.122658688 1014180.9516510179 90.0 68 15 16 4668
627934.7207124251 1014176.1667583742 81.9 68 15 20 4668
627938.3223300978 1014176.9635555664 80.7 68 15 24 4668
627935.2130599306 1014180.2156271151 82.5 68 15 28 4668
627938.2477769209 1014176.2334777938 82.9 68 15 33 4668
627920.2419483891 1014181.7263145425 65.2 68 15 57 4668
627935.0307731692 1014168.6482387345 78.6 68 16 00 4668
627949.4437549753 1014173.2177160046 118.6 68 16 08 4668
627928.7968375272 1014176.5124819498 78.3 68 16 12 4668
627942.3700120543 1014182.5278501379 87.8 68 16 16 4668
627934.8937303748 1014177.0298526732 99.2 68 16 20 4668
627935.809186976 1014179.3660831942 83.3 68 16 24 4668
627938.8894217279 1014178.2923680538 85.8 68 16 28 4668
627934.3717147778 1014182.137014498 86.4 68 16 32 4668
627933.5751828186 1014183.7931521203 83.5 68 16 36 4668
627932.1071941637 1014182.4171881034 87.6 68 16 40 4668
627933.8745542853 1014203.3117111651 68.1 68 16 44 4668
627951.8949497441 1014274.6950135687 90.3 68 16 48 4668
627946.8251151118 1014296.3303913057 88.0 68 16 52 4668
627965.9612722639 1014287.8887168672 36.7 68 16 56 4668
627966.8417945796 1014273.8809256911 61.6 68 17 00 4668
627961.4163460146 1014249.2811271303 83.8 68 17 08 4668
627972.092002212 1014244.0631206037 89.2 68 17 12 4668
627948.8941632058 1014227.5223851756 111.9 68 17 16 4668
627977.9437177471 1014242.2464400983 103.5 68 17 20 4668
627968.8074794677 1014226.8017982775 101.0 68 17 24 4668
627965.1844427395 1014222.4442118293 111.3 68 17 28 4668
627965.8480616997 1014224.5031740749 106.1 68 17 32 4668
627963.4423081453 1014224.285272202 110.8 68 17 36 4668
627965.4613929116 1014225.1432920725 110.3 68 17 40 4668
627964.5198201488 1014220.6948738623 106.8 68 18 00 4668
627967.8790817771 1014221.6788769809 94.0 69 06 00 4668
627956.4963424071 1014217.9043379687 99.4 69 06 32 4668
627962.347643436 1014229.77761251 88.6 69 06 36 4668
627971.2268735452 1014226.2014434194 86.9 69 06 40 4668
627924.0309620413 1014229.819313092 81.0 69 06 44 4668
627925.1630011648 1014199.2251523216 81.6 69 06 48 4668
627933.8823294312 1014180.5651751453 89.4 69 06 52 4668
627938.181656259 1014169.5099240756 81.5 69 06 56 4668
627937.0435788595 1014164.6627780072 87.8 69 07 00 4668
627950.6555771499 1014107.8349536139 93.6 69 07 08 4668
627935.2060221263 1014090.8217315065 70.1 69 07 12 4668
627929.7070653703 1014054.9755959109 85.5 69 07 17 4668
627927.9102580448 1014036.3810699283 67.2 69 07 20 4668
627904.3364327627 1013993.3881346479 76.9 69 07 24 4668
627857.4870777952 1013927.2194452022 82.2 69 07 28 4668
627853.6453142517 1013905.5552094042 86.1 69 07 32 4668
627848.623761894 1013929.2586195095 83.0 69 07 36 4668
627874.4952159332 1013917.6650061689 92.1 69 07 40 4668
627897.0987575193 1013893.8416009906 82.6 69 07 44 4668
627909.8138413862 1013896.8021236556 61.4 69 07 48 4668
627896.894306062 1013895.8977494143 68.3 69 07 52 4668
627877.4154880111 1013870.9760195301 68.2 69 07 56 4668
627866.8904476415 1013866.9831357588 69.0 69 08 00 4668
627810.5648717249 1013825.7862606057 114.2 69 08 16 4668
627774.2196894265 1013773.3527173059 97.2 69 08 21 4668
627754.1498790898 1013740.8543467988 83.0 69 08 24 4668
627751.2679644732 1013734.9621088102 79.2 69 08 28 4668
627755.6238012807 1013743.8005725393 86.2 69 08 32 4668
627751.2400776709 1013733.3917662975 58.3 69 08 36 4668
627747.516040455 1013719.468613868 100.8 69 08 40 4668
627735.4414703111 1013725.6995167845 90.0 69 08 45 4668
627733.2972594138 1013702.3599620488 77.0 69 08 48 4668
627724.3009118013 1013697.9518591311 59.4 69 08 52 4668
627751.0134301743 1013691.348080777 104.0 69 08 57 4668
627754.7364777427 1013708.9756984501 47.6 69 09 00 4668
627760.9929811169 1013728.1154148914 93.0 69 09 08 4668
627786.9916650363 1013717.9818147111 76.2 69 09 12 4668
627797.3258708087 1013723.2346786523 81.0 69 09 16 4668
627812.6400025404 1013721.0394299878 84.6 69 09 20 4668
627822.6188898042 1013727.4301374786 82.0 69 09 24 4668
627843.3273728153 1013732.3406108163 80.5 69 09 28 4668
627846.7643863389 1013736.4764130623 130.9 69 09 33 4668
627842.8362293605 1013755.0745124068 95.1 69 09 37 4668
627790.8853806297 1013730.401617732 100.2 69 09 40 4668
627753.6362185008 1013770.5658408751 88.0 69 09 44 4668
627755.3405507016 1013794.0034997921 96.5 69 09 48 4668
627773.2036225268 1013822.49169833 128.8 69 09 53 4668
627754.2583803195 1013836.4078724958 93.0 69 09 57 4668
627766.4630564624 1013844.2986140243 78.1 69 10 00 4668
627863.4146585183 1013901.9818901932 94.0 69 10 08 4668
627863.4507741297 1013901.0088925683 98.0 69 10 09 4668
627852.9367550395 1013917.3740454015 95.9 69 10 12 4668
627852.7804817314 1013921.5203343483 90.8 69 10 16 4668
627854.7777231045 1013908.7657301031 88.6 69 10 20 4668
627863.1213658089 1013911.1149476938 94.8 69 10 24 4668
627870.9753321292 1013908.5859506758 89.6 69 10 28 4668
627929.7100359412 1013894.6328264113 79.1 69 10 32 4668
627948.9924055838 1013898.7757384883 62.8 69 10 36 4668
627956.4017315119 1013918.1735753913 78.4 69 10 40 4668
627949.5314663948 1013939.2833898036 69.0 69 10 44 4668
627961.6295138416 1013949.5402940965 62.3 69 10 48 4668
627958.9926897743 1013952.8049548983 70.2 69 10 52 4668
627941.046933303 1013980.4252938937 56.4 69 10 56 4668
627926.5379447737 1013951.1959050565 100.7 69 11 00 4668
627860.6604954825 1013927.9153227259 68.3 69 11 08 4668
627850.026658531 1013926.985188483 77.5 69 11 12 4668
627840.3890415265 1013920.4186411939 92.1 69 11 16 4668
627812.3684967388 1013923.7891381934 79.8 69 11 20 4668
627789.6791631981 1013950.3768352213 99.0 69 11 24 4668
627791.2578008125 1013951.5209296225 105.5 69 11 28 4668
627785.2134181808 1013951.7446495992 97.6 69 11 32 4668
627784.284320836 1013960.4112072986 98.0 69 11 36 4668
627760.078225961 1014024.4810246229 83.9 69 11 40 4668
627738.2496369331 1014063.5561388163 73.3 69 11 44 4668
627736.0135603182 1014078.8201639259 74.6 69 11 48 4668
627717.2260085539 1014094.9816478564 71.2 69 11 52 4668
627707.1357862373 1014102.6565187671 66.9 69 11 56 4668
627695.1079179869 1014128.4604341664 66.3 69 12 00 4668
627680.2071781397 1014142.1906581242 63.0 69 12 08 4668
627659.2328254565 1014117.6180582759 60.1 69 12 12 4668
627645.4072368944 1014114.8862395915 56.4 69 12 16 4668
627610.1516910889 1014140.139592269 58.8 69 12 20 4668
627589.8412450665 1014134.5338416301 62.7 69 12 24 4668
627569.6028307452 1014150.8455103467 48.5 69 12 28 4668
627561.0095937346 1014174.7474982234 70.2 69 12 32 4668
627531.8667764387 1014144.6195289528 75.5 69 12 36 4668
627499.247371875 1014112.3903786982 47.1 69 12 40 4668
627496.1675056207 1014113.3535473145 68.5 69 12 44 4668
627471.509982653 1014126.8201179944 60.8 69 12 48 4668
627481.3249465112 1014115.8932211781 68.8 69 12 52 4668
627460.2675172552 1014113.6136195614 47.9 69 12 56 4668
627457.6112168662 1014126.3329256591 65.1 69 13 00 4668
627456.3732969734 1014097.9317121324 68.3 69 13 08 4668
627447.9669207337 1014074.1738824467 57.1 69 13 12 4668
627449.0572617523 1014073.4033342407 66.0 69 13 16 4668
627490.1510398472 1014060.697528787 65.9 69 13 20 4668
627531.1610741138 1014050.1146492051 79.7 69 13 24 4668
627534.9017562689 1014035.0766442054 157.8 69 13 28 4668
627551.2704552594 1014029.5341100272 126.9 69 13 32 4668
627541.7293153533 1014006.7014716587 79.4 69 13 36 4668
627543.8538968094 1013991.9125837823 82.1 69 13 40 4668
627570.442533929 1013999.7723193633 115.3 69 13 44 4668
627564.7463676403 1013963.6381323361 55.9 69 13 48 4668
627561.6929228868 1013946.2117468871 52.0 69 13 52 4668
627562.5040961967 1013946.8225630652 54.9 69 13 53 4668
627561.1963626923 1013950.2574109776 64.9 69 13 56 4668
627561.6889148825 1013930.4428700844 50.2 69 14 00 4668
627583.7183145131 1013914.2033195747 99.1 69 14 08 4668
627576.1642057792 1013888.5462184278 94.0 69 14 12 4668
627552.9510454249 1013852.8198985925 63.4 69 14 16 4668
627567.4787485367 1013852.5350760227 92.8 69 14 20 4668
627553.373325956 1013837.7490605224 58.8 69 14 24 4668
627567.8504150867 1013815.7127737406 78.6 69 14 28 4668
627565.1893666594 1013795.8659321785 87.9 69 14 32 4668
627579.0578844899 1013788.7450708095 95.6 69 14 36 4668
627603.7437910816 1013776.7714744066 107.1 69 14 40 4668
627603.7275809463 1013754.57779561 84.4 69 14 44 4668
627621.1159450123 1013715.7647153056 91.8 69 14 48 4668
627650.4605662548 1013656.3337220821 120.6 69 14 52 4668
627645.6621249134 1013662.0352600011 101.4 69 14 56 4668
627647.8577415037 1013676.2852015204 74.7 69 15 00 4668
627659.1696399172 1013671.4340710546 71.8 69 15 08 4668
627689.1011619288 1013665.0286407357 96.3 69 15 12 4668
627784.271596596 1013651.8675987377 183.1 69 15 17 4668
627741.1464842121 1013745.4788166216 76.7 69 15 29 4668
627720.7779523525 1013737.3847599438 62.8 69 15 32 4668
627748.4747173338 1013745.8232019297 102.5 69 15 36 4668
627755.8976805042 1013740.6609536539 110.3 69 15 40 4668
627764.1513378683 1013740.2674411732 109.9 69 15 44 4668
627760.0317005807 1013746.7341718401 96.4 69 15 48 4668
627759.1215385197 1013752.9458887776 103.9 69 15 52 4668
627762.6386115353 1013766.3044101306 94.7 69 15 56 4668
627762.8941155956 1013789.2287102242 93.6 69 16 00 4668
627762.2311137726 1013817.546400008 93.4 69 16 08 4668
627759.6852410348 1013833.4618515455 122.6 69 16 12 4668
627758.0166660219 1013839.737463949 110.0 69 16 16 4668
627757.4886798515 1013853.4920521235 88.2 69 16 20 4668
627784.6097785084 1013866.6173107749 81.6 69 16 24 4668
627834.322283271 1013907.1845511312 83.7 69 16 28 4668
627867.8593812332 1013924.0793464617 96.0 69 16 32 4668
627852.7851355762 1013920.0827938624 62.9 69 16 36 4668
627868.1513801045 1013922.1340627298 70.6 69 16 40 4668
627860.18993163 1013923.9218179428 76.1 69 16 44 4668
627872.4980112099 1013923.618866322 81.1 69 16 48 4668
627855.5281818255 1013921.341241726 61.4 69 16 52 4668
627863.5207724445 1013916.7227076427 82.5 69 16 56 4668
627876.5496820328 1013948.3247685656 87.2 69 17 00 4668
627892.2344708716 1014011.4842586474 84.0 69 17 08 4668
627909.106785664 1014003.1457912266 66.7 69 17 12 4668
627883.8203920692 1014020.7126567226 94.7 69 17 16 4668
627885.2655351756 1014032.5384685815 81.5 69 17 20 4668
627873.7040510873 1014033.0428757449 82.3 69 17 24 4668
627880.7465110017 1014026.6077388806 87.3 69 17 28 4668
627873.8272959513 1014025.5237525648 93.7 69 17 32 4668
627867.0816591656 1014008.1627759214 147.9 69 17 37 4668
627877.7798030807 1014026.5538990683 81.2 69 17 40 4668
627888.9039842925 1014059.2887901631 84.9 69 17 44 4668
627896.200971616 1014082.8330493844 81.9 69 17 48 4668
627914.7484349243 1014110.2840991085 83.4 69 17 52 4668
627912.974048923 1014125.4722118041 101.0 69 17 56 4668
627931.6409762024 1014156.7387138422 88.6 69 18 00 4668
627953.584354635 1014231.4853360284 89.6 69 18 08 4668
627956.862912859 1014230.2463935958 106.8 69 18 12 4668
627965.1569824701 1014224.136016007 99.5 69 18 16 4668
627962.8884285565 1014222.2708981945 96.7 69 18 20 4668
627966.9878478061 1014222.0409064111 101.7 69 18 24 4668
627963.5089905123 1014224.0532676983 103.7 69 18 28 4668
627968.8992003099 1014222.2350897357 98.8 70 06 00 4668
627970.2957058111 1014232.1034642478 100.9 70 06 32 4668
627937.1905442192 1014214.258941146 79.3 70 06 48 4668
627952.9548189867 1014191.7846274824 89.4 70 06 52 4668
627946.9980943685 1014171.7501181662 91.3 70 06 56 4668
627946.2513454036 1014164.8253124206 98.4 70 07 00 4668
627964.0960492104 1014124.2887661962 89.7 70 07 08 4668
627958.148207828 1014081.1649215445 64.2 70 07 12 4668
627939.0701593333 1014044.5117719382 82.1 70 07 16 4668
627890.6607106879 1013944.3674235529 84.5 70 07 20 4668
627864.8731321536 1013913.088964608 75.2 70 07 24 4668
627850.043338815 1013925.2270014714 68.4 70 07 28 4668
627854.322287681 1013923.8585890286 95.7 70 07 32 4668
627853.7215791015 1013922.7287160828 87.9 70 07 36 4668
627847.6857804413 1013923.6933489052 60.5 70 07 40 4668
627867.5688176752 1013922.1874671383 91.3 70 07 44 4668
627869.9043271865 1013923.7431658276 80.5 70 07 48 4668
627858.85396442 1013929.2806808294 89.1 70 07 52 4668
627842.5609097203 1013914.8192052435 90.9 70 07 56 4668
627827.7367393255 1013887.8778763895 104.7 70 08 01 4668
627841.8875108582 1013888.6203411692 90.6 70 08 04 4668
627826.0466009645 1013870.2568234091 98.6 70 08 08 4668
627828.6291206395 1013870.1877750545 105.6 70 08 09 4668
627798.5125579208 1013842.1243328577 95.6 70 08 12 4668
627766.2250322715 1013843.1477999588 205.6 70 08 17 4668
627751.1998751038 1013786.592227939 104.2 70 08 20 4668
627752.4167053463 1013722.9345950094 100.1 70 08 24 4668
627752.0001557687 1013739.6088851582 87.2 70 08 28 4668
627754.2798987138 1013734.6290485362 80.4 70 08 32 4668
627762.7803097636 1013732.6881975306 105.6 70 08 36 4668
627760.7579568679 1013739.6261527307 94.7 70 08 40 4668
627758.6153868051 1013736.169090806 112.4 70 08 48 4668
627773.098188612 1013719.2085544671 99.9 70 08 52 4668
627757.2718063159 1013726.898044687 94.4 70 08 56 4668
627747.6623698454 1013735.3817142623 61.4 70 09 00 4668
627729.2716052039 1013727.3382825025 80.6 70 09 05 4668
627727.3714732863 1013696.4800003164 119.6 70 09 08 4668
627740.9411391054 1013673.0585611428 112.4 70 09 12 4668
627740.4966583584 1013694.9743063003 107.6 70 09 16 4668
627738.4559179284 1013704.2012324536 82.8 70 09 20 4668
627750.3737385406 1013678.4854246747 148.7 70 09 24 4668
627782.9838531228 1013659.3055450415 165.8 70 09 28 4668
627781.4450685184 1013706.9831625366 120.1 70 09 32 4668
627763.8374588611 1013735.3897970248 57.4 70 09 36 4668
627779.6949804974 1013728.2643743173 76.6 70 09 40 4668
627786.7777994162 1013736.5366417882 67.2 70 09 44 4668
627823.7758798932 1013753.6084457902 102.7 70 09 48 4668
627843.4188709904 1013782.1577302339 104.7 70 09 52 4668
627846.851405442 1013787.6757834847 97.9 70 09 56 4668
627891.8903195469 1013856.4814604555 106.5 70 10 00 4668
627905.033283456 1013900.3694723276 73.5 70 10 08 4668
627909.1863835423 1013920.8957384368 99.8 70 10 13 4668
627881.2451087757 1013923.5366080867 84.2 70 10 16 4668
627863.2729448033 1013915.2069428331 83.3 70 10 20 4668
627866.7913349548 1013914.5659050914 87.2 70 10 24 4668
627864.4493804248 1013915.0006474142 87.0 70 10 28 4668
627846.9186429682 1013902.6914967984 68.2 70 10 32 4668
627849.6898588962 1013905.4318232603 80.9 70 10 36 4668
627840.8909634358 1013918.1201771507 76.6 70 10 40 4668
627856.4668805308 1013923.2905097951 84.2 70 10 44 4668
627845.9300032968 1013926.3526718388 59.5 70 10 48 4668
627868.3374726336 1013915.5661418665 82.6 70 10 52 4668
627865.2346742615 1013913.4218787565 82.2 70 10 56 4668
627815.8766006752 1013895.7681620566 85.4 70 11 00 4668
627855.8216499512 1013915.5477370737 91.0 70 11 12 4668
627850.2614522579 1013939.3157519518 77.3 70 11 20 4668
627846.7839363086 1013947.6976068605 77.7 70 11 24 4668
627854.4220580426 1013954.1360440219 114.4 70 11 28 4668
627842.1109460526 1013955.3789303763 103.7 70 11 32 4668
627823.3966674116 1013979.4250518664 79.6 70 11 36 4668
627822.0826465337 1014008.5589420637 89.8 70 11 40 4668
627826.9745288787 1014031.6973041573 116.6 70 11 44 4668
627829.4175401117 1014067.9316119874 65.4 70 11 48 4668
627851.1645521973 1014094.8069025816 85.0 70 11 52 4668
627852.8703832735 1014100.7838110534 96.5 70 11 56 4668
627863.3301255697 1014141.8875425053 108.2 70 12 00 4668
627871.0955519252 1014224.3620463406 89.6 70 12 08 4668
627845.7886508381 1014268.6673886285 65.7 70 12 12 4668
627828.1077397732 1014299.3959444523 49.4 70 12 16 4668
627831.0822151795 1014310.6185105401 49.4 70 12 20 4668
627856.1987570223 1014311.5070908635 61.5 70 12 24 4668
627877.9375405773 1014296.7706764223 50.0 70 12 28 4668
627880.4168043955 1014298.0393333838 61.8 70 12 32 4668
627913.3865077366 1014272.88939071 68.3 70 12 36 4668
627937.7395985363 1014299.1428845669 58.8 70 12 40 4668
627937.6008318226 1014308.0552834751 80.3 70 12 44 4668
627964.6959649413 1014335.8547654405 85.2 70 12 48 4668
627966.7303333979 1014335.3858605752 83.6 70 12 49 4668
627970.7234572056 1014323.8762374105 65.0 70 12 52 4668
627973.5541451494 1014328.5961754281 60.7 70 12 56 4668
627979.6363486837 1014313.3003877518 71.5 70 13 00 4668
628040.861480187 1014324.1147215983 61.4 70 13 08 4668
628066.5605301979 1014341.9021487994 64.6 70 13 12 4668
628065.8349862179 1014365.7079483295 55.8 70 13 16 4668
628066.985606884 1014393.7772149118 87.0 70 13 20 4668
628069.5642302146 1014398.2862398416 54.9 70 13 24 4668
628088.0053713131 1014383.9152141102 35.9 70 13 28 4668
628102.1351998292 1014377.5141750118 53.3 70 13 32 4668
628097.4326806135 1014370.5875829869 70.5 70 13 36 4668
628099.9664216748 1014361.8377653465 81.7 70 13 40 4668
628093.6756370222 1014343.1954597578 97.7 70 13 44 4668
628096.0025048223 1014320.3126796198 87.6 70 13 48 4668
628096.575016931 1014309.8093132444 80.5 70 13 52 4668
628080.0620314277 1014288.7010559302 93.2 70 13 56 4668
628076.1378231345 1014278.957170617 85.0 70 14 00 4668
628100.742410184 1014241.2181939791 75.8 70 14 08 4668
628113.3478040681 1014240.695131859 75.6 70 14 12 4668
628129.9858868401 1014233.4175848933 68.7 70 14 16 4668
628136.8533100965 1014230.1334916844 62.2 70 14 20 4668
628143.3635292912 1014218.4108856007 56.2 70 14 24 4668
628127.2487631922 1014216.7993888527 43.7 70 14 28 4668
628118.0461834228 1014204.8820343978 53.3 70 14 32 4668
628098.8985289524 1014152.492833991 69.3 70 14 36 4668
628082.1291493975 1014122.3271463013 59.8 70 14 40 4668
628062.6431011313 1014089.5429403528 52.9 70 14 44 4668
628053.7141791196 1014071.1574907771 53.6 70 14 48 4668
628044.1384660298 1014072.6303437812 39.1 70 14 52 4668
628035.9720569052 1014073.245234749 35.3 70 14 57 4668
628036.3484312374 1014045.2804519496 95.7 70 15 01 4668
628049.5376528739 1014034.1655686029 141.0 70 15 04 4668
628018.214251657 1014056.4456557292 91.9 70 15 08 4668
627995.9191501035 1014076.6429256304 73.3 70 15 12 4668
627996.273926898 1014068.8923295657 80.9 70 15 16 4668
628013.0047813518 1014077.0742886271 103.1 70 15 21 4668
627999.976583594 1014072.4208158184 79.8 70 15 24 4668
628021.6991129864 1014066.1438725906 130.7 70 15 28 4668
628002.3195904786 1014075.0491867741 81.7 70 15 32 4668
628001.5868853849 1014073.9631152726 83.4 70 15 36 4668
627996.35730123 1014073.6807682218 68.0 70 15 40 4668
627994.6489329296 1014078.6624452336 53.6 70 15 44 4668
627975.4255956211 1014059.7239188771 17.5 70 15 48 4668
627962.0137566237 1014037.8185427369 61.4 70 15 52 4668
627929.7791512324 1014042.9003590059 18.9 70 15 56 4668
627937.7303617372 1014023.9172054576 74.3 70 16 00 4668
627889.3054159408 1013969.2659234087 87.4 70 16 08 4668
627896.4014039568 1013939.5204412602 108.0 70 16 12 4668
627839.2451411149 1013924.1525826207 50.0 70 16 16 4668
627844.1325714306 1013904.5402419706 79.4 70 16 20 4668
627818.6542264736 1013899.9239458798 64.5 70 16 24 4668
627809.8478157795 1013897.9602748469 88.0 70 16 40 4668
627839.783326392 1013890.2833059775 108.7 70 16 44 4668
627761.0873687797 1013841.6162184686 104.6 70 17 00 4668
627750.8803518289 1013831.022701949 122.5 70 17 05 4668
627753.8046827886 1013810.2097292719 121.6 70 17 08 4668
627749.5522331429 1013776.2033287871 119.7 70 17 12 4668
627743.1492525706 1013737.7999038578 90.3 70 17 16 4668
627741.9787589682 1013739.5654168433 93.5 70 17 20 4668
627762.201130973 1013741.8866761652 113.7 70 17 24 4668
627763.0153465352 1013741.5575662856 113.8 70 17 28 4668
627758.8924026933 1013742.2519501656 115.5 70 17 32 4668
627761.4898170175 1013740.9776099733 115.7 70 17 36 4668
627764.068624638 1013742.0585883352 116.3 70 17 40 4668
627758.014688789 1013741.8289029101 109.0 70 18 00 4668
627759.2209049051 1013725.6216073809 80.6 71 06 08 4668
627756.0225330868 1013729.2383245544 73.0 71 06 12 4668
627743.5050986961 1013722.9057742443 56.9 71 06 16 4668
627749.0148920126 1013728.2978368659 30.3 71 06 20 4668
627728.7255994603 1013699.0940937444 66.9 71 06 48 4668
627735.6290256145 1013691.4863178502 73.3 71 06 52 4668
627743.7948091441 1013711.4726206847 60.2 71 06 56 4668
627756.3819337126 1013703.0538705918 89.8 71 07 00 4668
627772.2892739105 1013738.2811874024 83.5 71 07 08 4668
627773.695767382 1013762.0717442228 84.5 71 07 12 4668
627786.4444391807 1013788.6303495162 97.0 71 07 16 4668
627794.0392134185 1013815.2718085711 88.1 71 07 20 4668
627782.5957060037 1013809.8605397213 79.7 71 07 24 4668
627794.6809680572 1013807.112994702 102.5 71 07 28 4668
627786.575114798 1013809.3757989733 110.4 71 07 32 4668
627790.4487136176 1013804.2352491207 99.7 71 07 36 4668
627775.2935810582 1013811.6393892934 76.8 71 07 40 4668
627777.9308786581 1013818.4154883793 84.8 71 07 44 4668
627771.1267388575 1013819.1122541755 88.5 71 07 48 4668
627793.7767843818 1013818.2677091609 93.1 71 07 52 4668
627766.694908591 1013837.1668791708 113.0 71 07 56 4668
627758.9041069339 1013837.1527354702 95.3 71 08 00 4668
627751.5072543258 1013827.4529583657 122.2 71 08 08 4668
627747.9203431691 1013740.5577463213 80.6 71 08 12 4668
627764.0003299228 1013725.8029378023 108.9 71 08 16 4668
627730.6123471584 1013676.3204798884 80.6 71 08 24 4668
627714.8541727039 1013662.911328453 77.3 71 08 29 4668
627691.6955008088 1013647.7089646661 64.6 71 08 32 4668
627647.849802736 1013651.5371238126 84.5 71 08 36 4668
627573.3747874326 1013646.4752073777 71.8 71 08 45 4668
627589.2586319405 1013627.7940699786 128.0 71 08 48 4668
627590.8504555011 1013628.2636517572 91.0 71 08 52 4668
627624.4334918102 1013600.4282888432 61.3 71 08 57 4668
627628.7748087943 1013586.564386165 56.0 71 09 00 4668
627638.4759119967 1013583.7206192424 20.9 71 09 09 4668
627703.5154633317 1013635.2625640675 43.7 71 09 12 4668
627758.5768073533 1013629.1817042491 72.4 71 09 16 4668
627764.2319758128 1013637.1950106944 56.7 71 09 20 4668
627775.3808810484 1013638.5801601665 68.1 71 09 24 4668
627824.1165682728 1013648.3252128464 115.9 71 09 29 4668
627827.023030522 1013650.026509484 113.3 71 09 30 4668
627835.4689626461 1013715.8606982963 50.6 71 09 33 4668
627850.8588435046 1013747.9790506387 61.4 71 09 37 4668
627838.5987936283 1013791.1434378368 69.4 71 09 40 4668
627836.4316090121 1013791.8994337809 66.2 71 09 41 4668
627845.1539664716 1013826.6280415248 88.8 71 09 44 4668
627858.3505615472 1013823.4196722836 133.7 71 09 48 4668
627842.3104069545 1013832.6565702364 102.2 71 09 52 4668
627825.8157598666 1013832.9349271083 101.6 71 10 00 4668
627706.0451344028 1013845.2753724062 97.8 71 10 16 4668
627700.7328119171 1013846.7842155637 94.4 71 10 17 4668
627746.5990735658 1013833.1098963183 135.1 71 10 20 4668
627708.804625741 1013838.0522884892 79.8 71 10 24 4668
627734.6182818091 1013881.7047374708 148.2 71 10 33 4668
627709.5161752198 1013923.8434397598 95.6 71 10 36 4668
627747.1546452346 1013926.3316078685 115.7 71 10 40 4668
627765.3257122547 1013951.3043268763 114.4 71 10 44 4668
627810.0109859942 1013949.4031683656 99.5 71 10 48 4668
627826.6788192876 1013929.552501421 85.9 71 10 52 4668
627859.633572939 1013919.2756063491 73.1 71 10 56 4668
627862.1419252325 1013921.7496880587 85.0 71 11 00 4668
627846.1275817143 1013919.6299748432 76.5 71 11 08 4668
627863.1996193314 1013897.1266793582 77.3 71 11 12 4668
627876.1716885623 1013871.6244214326 65.5 71 11 16 4668
627886.9320346998 1013870.8188455667 47.6 71 11 21 4668
627948.8148382311 1013821.3019553158 81.6 71 11 24 4668
627924.3443884766 1013858.3226899722 38.4 71 11 28 4668
627930.017972552 1013843.6669390649 53.5 71 11 32 4668
627930.4149514958 1013843.2369581523 52.0 71 11 37 4668
627939.939846957 1013898.1713893028 49.2 71 11 40 4668
627954.864294991 1013928.0545563962 38.5 71 11 44 4668
627969.6004843949 1013938.032499272 39.3 71 11 48 4668
627961.8443580846 1013934.1038496002 59.0 71 11 52 4668
627963.0002284603 1013950.4183273066 40.3 71 11 56 4668
627961.8268162133 1013997.1682727926 51.5 71 12 00 4668
627930.7969629962 1014013.6438628769 86.2 71 12 08 4668
627896.5296902305 1014032.2321479551 76.8 71 12 12 4668
627868.9690315117 1014042.913502864 85.4 71 12 16 4668
627843.6156144085 1014050.649503118 85.4 71 12 20 4668
627841.7975203036 1014106.4981817385 89.1 71 12 24 4668
627841.9446816645 1014125.5296833116 92.2 71 12 28 4668
627872.4780231 1014157.1442011499 71.3 71 12 32 4668
627893.1786529254 1014174.5835586924 66.5 71 12 36 4668
627902.4232558981 1014210.862032029 69.2 71 12 40 4668
627903.2697122435 1014210.7541929574 67.9 71 12 41 4668
627907.728287052 1014242.1184167753 77.7 71 12 44 4668
627914.9533356831 1014257.3246290174 68.1 71 12 48 4668
627836.208259003 1014281.7844713394 32.5 71 12 52 4668
627835.5342326837 1014296.5117060572 41.9 71 12 56 4668
627836.150962359 1014302.8721227972 74.3 71 13 00 4668
627837.3198357789 1014301.6042239027 67.4 71 13 08 4668
627833.0017764893 1014298.0958750974 51.1 71 13 12 4668
627835.9796619936 1014301.4782448271 74.2 71 13 20 4668
627848.1836378021 1014306.1400601823 69.5 71 13 24 4668
627856.7303185777 1014306.8422849793 61.1 71 13 28 4668
627849.5889766451 1014292.9301560255 24.4 71 13 32 4668
627857.5639970751 1014286.9293074572 24.3 71 13 36 4668
627862.0071391788 1014295.9228927102 33.8 71 13 40 4668
627893.5931280735 1014297.6507507219 66.5 71 13 44 4668
627900.2989247083 1014266.2342307997 -5.9 71 13 48 4668
627963.2189054922 1014293.2098443665 114.2 71 13 52 4668
627961.0892965363 1014292.5505121575 108.9 71 13 53 4668
627965.8664086876 1014313.7644238233 98.9 71 13 56 4668
627945.7845270726 1014295.3096713003 25.7 71 14 00 4668
627971.9098059337 1014307.0496151958 65.7 71 14 08 4668
627986.123831516 1014298.4040069822 80.7 71 14 12 4668
627997.874342477 1014276.856639797 81.0 71 14 16 4668
628003.52193883 1014273.601745214 84.1 71 14 20 4668
628008.5143845978 1014258.8995654167 86.3 71 14 24 4668
628009.292489404 1014262.9272466466 78.5 71 14 28 4668
628024.3467968932 1014249.3082163953 85.7 71 14 32 4668
628044.7360198899 1014240.7600573822 87.3 71 14 36 4668
628040.8690118963 1014216.762435941 96.5 71 14 40 4668
628034.0837156994 1014194.7236988526 90.0 71 14 44 4668
628006.1012234875 1014172.8484564094 88.4 71 14 48 4668
627978.6072815466 1014156.1831986335 94.2 71 14 52 4668
627928.3223733094 1014143.2038760757 75.1 71 14 56 4668
627939.6955337867 1014139.7684758294 84.2 71 15 00 4668
627877.5004108885 1014109.4336138087 87.2 71 15 08 4668
627858.19437945 1014075.3010237681 71.2 71 15 12 4668
627826.6975835734 1014083.3046512147 87.2 71 15 16 4668
627795.5483091304 1014079.0017410107 67.4 71 15 20 4668
627772.9852612459 1014059.7981802586 55.7 71 15 24 4668
627771.2002361245 1014047.7279981772 65.9 71 15 28 4668
627771.0694941528 1014023.6098211985 61.7 71 15 32 4668
627764.0235295483 1014017.5492917969 65.2 71 15 36 4668
627775.1179771781 1014005.1669229084 71.6 71 15 40 4668
627776.5004967789 1013999.0009668319 85.5 71 15 44 4668
627787.1374768468 1013975.18302645 86.5 71 15 48 4668
627850.3472166695 1013929.7949886075 76.0 71 15 53 4668
627864.3939373592 1013915.1552815894 91.7 71 15 56 4668
627856.958962826 1013917.2433113796 82.7 71 16 00 4668
627781.8043441017 1013843.883804138 93.4 71 16 08 4668
627780.8366149226 1013844.1128936858 94.4 71 16 09 4668
627753.2457676984 1013836.9243285464 118.7 71 16 12 4668
627756.9095638179 1013825.3030418331 122.1 71 16 16 4668
627751.1174182283 1013805.2912341866 94.6 71 16 20 4668
627755.1998276165 1013800.1402986919 111.2 71 16 24 4668
627746.3219377425 1013779.4992576146 86.2 71 16 28 4668
627752.4439203071 1013755.2907275467 100.3 71 16 32 4668
627747.4659923781 1013755.3299183773 106.1 71 16 36 4668
627760.5599987631 1013760.060909634 76.2 71 16 40 4668
627724.2270356294 1013751.3844267079 93.6 71 16 44 4668
627727.9531432174 1013751.0757901727 103.5 71 16 48 4668
627684.8424435424 1013762.1161604724 90.6 71 16 52 4668
627674.6188668679 1013763.4322027669 99.8 71 16 56 4668
627666.5949375806 1013764.1471609769 95.3 71 17 00 4668
627607.5201674534 1013791.5130771429 122.4 71 17 05 4668
627574.9603308658 1013805.3964061135 120.7 71 17 08 4668
627545.6709672594 1013827.3627390543 178.6 71 17 12 4668
627539.9866598259 1013838.5794208446 86.6 71 17 16 4668
627505.1895038425 1013854.5455570654 100.9 71 17 20 4668
627508.1427974023 1013875.7755987193 84.8 71 17 24 4668
627489.3519462469 1013913.3899057137 74.4 71 17 28 4668
627508.2072110828 1013930.7014250623 86.3 71 17 32 4668
627513.9054424159 1013921.9728601659 80.5 71 17 36 4668
627504.3520007493 1013919.9515559648 82.6 71 17 40 4668
627503.3047512078 1013920.9876369565 79.6 71 17 44 4668
627503.6627257471 1013922.4263466123 81.3 71 17 48 4668
627502.0588902369 1013922.277413216 80.4 71 17 52 4668
627502.7182271547 1013922.2684837789 80.2 71 17 56 4668
627502.2665979331 1013922.6098270118 84.0 71 18 00 4668
627499.2683264639 1013932.33128137 85.1 71 18 08 4668
627492.0474875122 1013929.3665134822 88.5 71 18 12 4668
627503.0236875969 1013922.9550726026 66.4 72 06 00 4668
627530.3711263193 1013900.020392896 76.4 72 06 36 4668
627537.5385265586 1013878.7013893237 84.8 72 06 40 4668
627538.9499798049 1013860.1615000095 90.5 72 06 44 4668
627549.5073024116 1013850.7630269333 92.3 72 06 48 4668
627568.9414758176 1013855.5476062159 82.5 72 06 52 4668
627594.1198371733 1013847.5896936323 101.1 72 06 56 4668
627608.9658459506 1013840.6157575151 101.7 72 07 00 4668
627641.3833911226 1013840.1565460836 114.2 72 07 08 4668
627662.3538993838 1013821.779391847 126.3 72 07 12 4668
627670.287571495 1013818.3880792842 121.2 72 07 16 4668
627699.5758712798 1013823.9675863978 121.7 72 07 20 4668
627726.7181857496 1013833.94130599 110.7 72 07 24 4668
627720.8647097095 1013812.5028094096 112.4 72 07 28 4668
627738.562202026 1013769.8757181709 103.7 72 07 32 4668
627750.3481198858 1013720.3845384666 75.2 72 07 36 4668
627733.9169517865 1013694.2231939218 79.8 72 07 40 4668
627747.5118965597 1013696.9653371344 99.8 72 07 44 4668
627737.3753019968 1013695.1632586652 82.6 72 07 48 4668
627745.4502006777 1013641.3142382292 66.3 72 07 52 4668
627742.0727089286 1013642.5528833277 67.9 72 07 53 4668
627741.0312635881 1013672.3732494991 58.4 72 07 56 4668
627762.7043518348 1013715.404117643 91.1 72 08 00 4668
627777.1987275351 1013772.9974364745 96.2 72 08 08 4668
627802.3182721063 1013817.2116509172 116.4 72 08 12 4668
627827.9917127857 1013836.2594048957 96.2 72 08 16 4668
627848.7491239249 1013890.5334911117 81.9 72 08 21 4668
627862.8612859264 1013923.5655487526 89.2 72 08 24 4668
627852.7946203945 1013920.5472655924 78.8 72 08 28 4668
627845.0985078082 1013911.6537395096 88.5 72 08 32 4668
627850.9084518222 1013919.3579406275 82.3 72 08 36 4668
627857.151519811 1013929.0429486046 77.8 72 08 40 4668
627862.3212449335 1013924.0614157027 73.6 72 08 44 4668
627863.7221817642 1013912.2116467752 77.2 72 08 48 4668
627895.6318391577 1013909.097057614 42.9 72 08 52 4668
627902.8164787431 1013889.3041717142 66.4 72 08 56 4668
627921.4811619187 1013867.0272161135 53.9 72 09 01 4668
627936.421374425 1013844.561272309 50.8 72 09 05 4668
627926.9309550311 1013873.9672523696 9.3 72 09 08 4668
627950.9131534118 1013848.5891414407 52.3 72 09 13 4668
627931.1939296838 1013850.3940862858 32.7 72 09 17 4668
627927.9275932916 1013830.888037486 60.3 72 09 20 4668
627935.206916733 1013832.7583221017 40.4 72 09 24 4668
627947.7055922247 1013831.2949047053 40.4 72 09 28 4668
627917.6007318808 1013806.4161421191 46.2 72 09 32 4668
627928.8406095492 1013772.9132626961 62.6 72 09 36 4668
627914.7618750016 1013753.3058508509 52.6 72 09 40 4668
627896.9115843531 1013741.2499882062 45.8 72 09 45 4668
627895.4654420364 1013743.3021161178 43.9 72 09 46 4668
627915.9645498809 1013731.4257243477 78.1 72 09 49 4668
627882.0393980955 1013725.7315269952 77.7 72 09 52 4668
627866.9908841342 1013710.367315886 82.6 72 09 56 4668
627821.8560429259 1013735.654908321 72.8 72 10 00 4668
627786.1828494358 1013801.5564414364 94.1 72 10 08 4668
627758.1364079212 1013846.881394086 112.7 72 10 12 4668
627757.9528532856 1013842.4796702476 101.8 72 10 16 4668
627756.7494311058 1013827.2487522184 116.6 72 10 20 4668
627758.3211143899 1013837.3388376259 99.4 72 10 21 4668
627794.0488286602 1013897.2014297319 97.8 72 10 32 4668
627809.7363674307 1013915.4206825127 102.3 72 10 36 4668
627824.8546785418 1013922.7790285847 108.6 72 10 40 4668
627846.5407723938 1013920.9804029912 102.6 72 10 44 4668
627844.5300051795 1013931.1252473472 84.0 72 10 48 4668
627842.9173266302 1013937.1024694025 69.0 72 11 00 4668
627960.5297599738 1013966.7763455387 54.3 72 11 24 4668
627963.4697641738 1014008.9836731002 60.9 72 11 28 4668
627969.9886547631 1014025.0943687843 47.9 72 11 32 4668
627978.8994470097 1014025.3554673649 67.6 72 11 36 4668
627977.9556322887 1014024.987490453 69.6 72 11 37 4668
627988.9368330374 1014037.3971226966 51.0 72 11 40 4668
628011.0756472063 1014038.2982444933 63.3 72 11 44 4668
628015.2684992348 1014053.3177141302 64.5 72 11 48 4668
628038.4163555996 1014081.9116740448 64.3 72 11 52 4668
628059.5354483413 1014105.8436005309 67.8 72 11 56 4668
628064.3503561709 1014135.7272212361 53.7 72 12 00 4668
628113.8206345942 1014186.412302794 61.5 72 12 08 4668
628124.4392621528 1014208.9389983066 53.4 72 12 12 4668
628130.0479632335 1014227.83343003 50.3 72 12 16 4668
628137.5377423656 1014229.1625974783 47.2 72 12 20 4668
628153.159022592 1014247.3928700103 44.9 72 12 24 4668
628158.2254639773 1014260.6901332843 47.0 72 12 28 4668
628156.3188316278 1014272.5824945671 53.5 72 12 32 4668
628156.7596704485 1014285.7209871148 66.4 72 12 36 4668
628146.0619409913 1014287.5772016848 45.0 72 12 40 4668
628154.6241157989 1014297.0486405102 52.7 72 12 44 4668
628153.5199590484 1014315.611660828 71.6 72 12 48 4668
628116.7177809809 1014353.4990061721 75.8 72 12 52 4668
628088.5981160314 1014394.2675478419 60.4 72 12 56 4668
628082.5850534922 1014401.7896817111 62.4 72 13 00 4668
628045.9203337467 1014377.0221609611 41.3 72 13 08 4668
628062.5083911384 1014402.0784032636 101.7 72 13 12 4668
628049.8179088627 1014371.2624603941 53.2 72 13 16 4668
628047.790499366 1014369.5861063928 56.0 72 13 17 4668
628047.2189554656 1014376.4071181378 130.0 72 13 21 4668
628037.8053611534 1014365.1857573703 114.2 72 13 24 4668
627990.3698537489 1014324.1279174277 24.9 72 13 28 4668
627994.0894941123 1014332.5773281746 42.1 72 13 32 4668
627998.1920577724 1014331.3742360664 50.0 72 13 36 4668
627993.0704371957 1014328.3055871048 51.9 72 13 40 4668
627997.2910186162 1014338.1499465085 70.3 72 13 44 4668
627960.8397010452 1014342.4329083815 78.9 72 13 48 4668
627946.9204020019 1014344.9090444115 68.9 72 13 52 4668
627947.0985583968 1014340.7959991925 70.9 72 13 56 4668
627937.7840324721 1014339.6821145557 57.6 72 14 00 4668
627912.5620869141 1014266.1965546947 49.3 72 14 12 4668
627916.7677288243 1014267.0948311145 75.0 72 14 16 4668
627900.0407910516 1014278.0766445892 92.2 72 14 20 4668
627872.0084302664 1014278.3839298656 69.0 72 14 24 4668
627851.0459983627 1014280.7267083267 77.6 72 14 28 4668
627845.3547364742 1014246.5718571951 59.1 72 14 32 4668
627852.5071174542 1014236.7201165025 63.8 72 14 36 4668
627856.8489896542 1014215.9117346123 62.1 72 14 41 4668
627842.4554119185 1014215.5333810534 57.4 72 14 44 4668
627790.2751349073 1014221.2031394555 38.7 72 14 48 4668
627793.0352336611 1014207.0023902301 68.1 72 14 52 4668
627762.2830293395 1014198.8746703621 42.2 72 14 56 4668
627773.459983545 1014150.7969679527 87.9 72 15 00 4668
627751.9122359185 1014086.1036065837 71.5 72 15 08 4668
627734.5630100699 1014106.0184377752 63.2 72 15 12 4668
627709.7480655104 1014130.7525813051 67.4 72 15 16 4668
627660.8351773343 1014135.2166981056 59.0 72 15 20 4668
627633.7713109861 1014141.8304209097 44.0 72 15 24 4668
627641.4847892141 1014172.5416204263 61.1 72 15 28 4668
627631.5687701857 1014180.7257428989 61.2 72 15 32 4668
627613.6936126524 1014186.6061699893 46.7 72 15 36 4668
627606.0957213844 1014191.5245892023 42.9 72 15 40 4668
627579.6498214089 1014190.5434179248 39.9 72 15 44 4668
627565.7513117907 1014237.595004482 69.1 72 15 49 4668
627558.074266621 1014212.6009855801 37.2 72 15 52 4668
627558.219044275 1014188.1962031359 49.4 72 15 56 4668
627522.9889742004 1014168.1778017331 38.1 72 16 00 4668
627486.3978844236 1014205.5245060077 62.8 72 16 08 4668
627462.1902960879 1014202.1731470685 43.9 72 16 12 4668
627449.9372107113 1014192.2808181214 46.2 72 16 16 4668
627451.1453143081 1014192.4727057705 46.2 72 16 17 4668
627439.2066555962 1014170.2737236633 60.3 72 16 21 4668
627422.9484756035 1014151.8095046174 65.0 72 16 24 4668
627420.1964635809 1014129.4964247949 46.0 72 16 28 4668
627425.2129809625 1014124.2931880871 68.2 72 16 32 4668
627442.3308307807 1014114.7278822811 61.9 72 16 36 4668
627473.4351193872 1014105.7274646956 57.0 72 16 40 4668
627487.2057709915 1014094.8465134919 53.1 72 16 44 4668
627526.4055427815 1014076.5724031378 64.1 72 16 48 4668
627551.0916627873 1014071.277896056 73.2 72 16 52 4668
627546.4689759586 1014070.2124436455 93.4 72 16 56 4668
627547.6211834868 1014050.2894521217 88.1 72 17 00 4668
627551.7790669247 1014008.1493693204 83.2 72 17 08 4668
627554.3864218697 1014003.7898380203 104.8 72 17 12 4668
627563.8099294261 1013991.6010666139 94.5 72 17 16 4668
627573.2424876544 1013983.4153618276 91.3 72 17 20 4668
627580.1858110317 1013980.4410449275 82.6 72 17 24 4668
627582.136713328 1013978.6006432618 76.6 72 17 28 4668
627639.7015771889 1013983.1324982992 100.2 72 17 32 4668
627669.4595252498 1013996.3546730443 107.7 72 17 36 4668
627677.9662173346 1014016.2425483087 82.5 72 17 40 4668
627691.3895659094 1014007.4505182641 103.1 72 17 44 4668
627694.9737910549 1014003.43695458 115.1 72 17 48 4668
627695.1044353477 1014003.8133529278 112.1 72 17 52 4668
627696.3383937635 1014006.20589586 118.9 72 17 56 4668
627693.3809220626 1014006.6939475932 118.4 72 18 00 4668
627707.8920903531 1014011.5069212475 116.8 73 06 32 4668
627709.1683823606 1014011.0023754975 83.0 73 06 36 4668
627698.6601407066 1014001.8233322357 74.9 73 06 40 4668
627695.9694209637 1014045.549474467 66.0 73 06 44 4668
627705.0044450806 1014048.166291891 70.5 73 06 48 4668
627729.8872585417 1014039.8315454896 90.0 73 06 52 4668
627750.3338257077 1014044.1329467654 59.0 73 06 56 4668
627748.4575684943 1014060.2606689566 76.0 73 07 00 4668
627748.0410986473 1014046.337152779 71.8 73 07 28 4668
627742.3801046489 1014026.5579853093 57.6 73 07 32 4668
627766.0037373003 1014003.2575533647 87.2 73 07 36 4668
627758.0037195255 1013999.9916424332 68.0 73 07 40 4668
627787.6312499305 1013951.6308338948 96.5 73 07 44 4668
627771.5417674158 1013959.153584639 94.4 73 07 48 4668
627852.204289678 1013923.0002570356 72.4 73 07 52 4668
627861.7781661409 1013918.7075273647 80.6 73 07 56 4668
627853.2279995275 1013919.05582245 77.5 73 08 00 4668
627830.1322790538 1013918.4170957131 65.4 73 08 08 4668
627818.6242262388 1013885.4266557624 111.8 73 08 12 4668
627800.3722394491 1013837.9172076514 79.7 73 08 16 4668
627780.1305107628 1013831.4048333104 88.6 73 08 20 4668
627761.2159534723 1013832.4383982362 75.2 73 08 25 4668
627751.6464350173 1013835.3820773601 129.3 73 08 28 4668
627754.1119902519 1013837.5021524293 111.6 73 08 32 4668
627741.436954706 1013788.1751371282 92.8 73 08 36 4668
627741.9379425705 1013735.1973295677 97.1 73 08 40 4668
627756.6414336734 1013731.5404142096 75.1 73 08 44 4668
627748.9605313505 1013731.5155724736 95.0 73 08 48 4668
627726.0253160378 1013721.9867163438 93.9 73 08 52 4668
627731.6276380192 1013705.5614162206 103.6 73 08 56 4668
627724.6589183051 1013668.7927708809 104.7 73 09 01 4668
627740.4163693533 1013658.6370833091 109.2 73 09 04 4668
627734.5991381255 1013653.1666225715 84.1 73 09 08 4668
627736.159674898 1013653.1163780377 85.7 73 09 09 4668
627727.7764032667 1013635.8164978058 67.7 73 09 12 4668
627729.6232837203 1013635.5681327124 47.4 73 09 16 4668
627724.7612493001 1013599.7572996217 60.5 73 09 20 4668
627699.8309063085 1013595.5188553628 53.3 73 09 25 4668
627677.7359000896 1013597.9908064284 23.4 73 09 29 4668
627685.1694013763 1013592.9723323963 51.9 73 09 32 4668
627678.8578058153 1013614.6590065364 40.0 73 09 36 4668
627697.3076711195 1013618.03607397 89.6 73 09 40 4668
627693.0323082109 1013618.2876490041 82.5 73 09 41 4668
627695.3312854553 1013641.3512443935 60.0 73 09 44 4668
627724.7178050717 1013660.7758289218 63.0 73 09 48 4668
627746.493649929 1013706.0186400086 68.0 73 09 52 4668
627752.8539886607 1013737.2230938125 88.0 73 09 56 4668
627754.4491039632 1013753.6606118967 90.5 73 10 00 4668
627759.1163487595 1013832.6859432344 91.6 73 10 08 4668
627756.4552348884 1013836.66931516 97.9 73 10 09 4668
627756.0834971092 1013839.4879322211 103.0 73 10 12 4668
627754.700212443 1013839.0964237496 107.1 73 10 16 4668
627744.7606291585 1013854.5345776064 133.2 73 10 20 4668
627717.6645254734 1013874.4510758885 132.2 73 10 24 4668
627671.7103674819 1013884.7413548698 118.9 73 10 28 4668
627624.3006471773 1013886.4127119193 113.9 73 10 32 4668
627635.2543618936 1013920.971534888 121.6 73 10 36 4668
627648.0282586641 1013932.9334654873 125.0 73 10 40 4668
627615.3481062701 1013946.6726047517 106.2 73 10 44 4668
627585.1218429632 1013935.5389480508 107.9 73 10 48 4668
627570.0240205795 1013918.4275123293 131.4 73 10 52 4668
627555.798086975 1013910.3423170663 90.8 73 10 56 4668
627524.0639024822 1013930.5978108456 84.1 73 11 00 4668
627414.1010159147 1013879.9174548634 51.0 73 11 12 4668
627407.805958045 1013852.2518882403 169.0 73 11 16 4668
627430.1292583398 1013864.111845848 46.1 73 11 20 4668
627425.5578480255 1013860.7686072298 60.2 73 11 24 4668
627417.0313324238 1013833.3501759365 48.5 73 11 28 4668
627407.7107059406 1013793.2123683284 68.5 73 11 32 4668
627405.4727565041 1013754.5902545586 82.0 73 11 36 4668
627382.7211583619 1013718.7770908405 46.0 73 11 40 4668
627382.1886140294 1013696.5043569163 59.2 73 11 44 4668
627365.2503948411 1013674.1676662031 97.9 73 11 48 4668
627321.3009969533 1013648.8356379934 69.3 73 11 52 4668
627319.6498594678 1013642.9031752984 72.1 73 11 56 4668
627330.0026306425 1013608.324692697 -7.7 73 12 00 4668
627325.2427850689 1013608.8843725688 73.0 73 12 08 4668
627332.8565370897 1013602.473098693 82.2 73 12 13 4668
627315.6468502531 1013589.3359020031 79.5 73 12 16 4668
627297.8442044382 1013559.0125197769 98.9 73 12 21 4668
627283.5396731716 1013551.3916344662 73.4 73 12 24 4668
627276.2798707583 1013550.2624360879 86.3 73 12 28 4668
627275.3116269391 1013540.4176106406 71.3 73 12 32 4668
627276.5713412148 1013504.128995297 111.9 73 12 37 4668
627278.6465243711 1013497.8215071929 85.4 73 12 40 4668
627285.7141993346 1013480.1402629613 100.9 73 12 44 4668
627293.8415242526 1013495.0948778703 91.9 73 12 48 4668
627291.0082306883 1013460.4407315811 70.7 73 12 52 4668
627284.4388849179 1013463.2836149939 79.0 73 12 56 4668
627282.9161868854 1013468.6418865352 84.5 73 13 00 4668
627307.026845024 1013440.8310440562 98.6 73 13 08 4668
627308.7519744006 1013468.1390452489 98.9 73 13 12 4668
627307.0934842878 1013464.4845292257 103.4 73 13 16 4668
627331.3422536235 1013451.7905644713 106.8 73 13 24 4668
627324.867361201 1013469.6506433793 103.6 73 13 28 4668
627321.4469618597 1013463.7456548827 83.7 73 13 32 4668
627406.0583711355 1013576.4240009581 70.7 73 13 52 4668
627414.3108808723 1013651.3471418696 50.6 73 13 56 4668
627443.255329247 1013695.4296457284 62.6 73 14 00 4668
627426.0466583094 1013709.2520490708 64.6 73 14 08 4668
627397.1583747958 1013705.6755673657 35.4 73 14 12 4668
627410.1899875365 1013705.9166440882 67.9 73 14 16 4668
627447.327749409 1013703.5815491045 81.6 73 14 32 4668
627438.0541392298 1013734.016705341 70.1 73 14 36 4668
627531.0065636095 1013791.7082801166 82.1 73 14 44 4668
627543.2620833181 1013790.6752162126 85.3 73 14 48 4668
627541.4230584505 1013791.8967278026 90.0 73 14 49 4668
627557.0742632076 1013783.9854317233 87.5 73 14 52 4668
627559.1972265552 1013786.7125824101 98.0 73 14 53 4668
627582.0317029485 1013790.0042427198 127.3 73 14 56 4668
627570.6152508107 1013793.2184522046 98.8 73 15 00 4668
627613.4748158503 1013781.6574230083 101.8 73 15 08 4668
627623.160517368 1013766.5612220503 98.4 73 15 12 4668
627663.0038363726 1013726.0845913474 100.7 73 15 16 4668
627697.9390906589 1013701.4494584174 79.9 73 15 21 4668
627716.6480585288 1013696.0472359142 94.6 73 15 24 4668
627746.6381411479 1013691.9200112061 87.8 73 15 32 4668
627734.9301004212 1013703.7364482488 88.7 73 15 36 4668
627750.6434215745 1013724.211601248 77.6 73 15 40 4668
627754.489125058 1013741.2867105071 82.1 73 15 44 4668
627752.842133093 1013734.0936089227 97.1 73 15 52 4668
627769.708984903 1013730.863903478 111.8 73 15 56 4668
627767.2847092444 1013736.3630034017 109.8 73 16 00 4668
627763.2009692357 1013741.9230844934 123.6 73 16 28 4668
627764.3784462529 1013741.39610354 117.5 73 16 32 4668
627768.7051194081 1013738.8667320127 128.4 73 16 36 4668
627759.5057069411 1013739.4894050295 109.0 73 16 40 4668
627755.8912342682 1013739.2565521817 112.7 73 16 44 4668
627758.806418508 1013738.259692454 119.4 73 16 48 4668
627755.1773536089 1013742.5385034566 92.1 73 17 00 4668
627764.7259186803 1013739.2851274046 109.7 73 17 20 4668
627768.3966136862 1013735.7252292843 101.6 73 17 24 4668
627762.6545451052 1013737.597593965 106.9 73 17 28 4668
627763.8739092104 1013741.1069605936 100.8 73 17 32 4668
627764.5681822211 1013740.4899517826 105.0 73 17 36 4668
627763.7204212655 1013737.6010415453 105.2 73 17 40 4668
627761.0253350388 1013741.8939311947 99.0 73 18 00 4668
627778.6092242382 1013720.8187500506 115.3 74 06 20 4668
627772.5602142042 1013732.6534829269 103.9 74 06 24 4668
627773.253035055 1013739.279535345 95.3 74 06 28 4668
627773.5313083214 1013731.3849408525 105.7 74 06 32 4668
627776.6304196664 1013741.4689093602 91.5 74 06 40 4668
627766.2321309673 1013728.8511383397 80.5 74 06 44 4668
627757.42610056 1013723.3599468888 73.8 74 06 48 4668
627739.2147523845 1013700.6097991996 91.3 74 06 52 4668
627744.9177243621 1013693.8385594442 81.7 74 06 56 4668
627734.3593103372 1013703.5466145604 89.5 74 07 00 4668
627742.8840547727 1013734.8575877125 81.8 74 07 08 4668
627757.8388631896 1013752.0239164806 115.3 74 07 12 4668
627769.5587549489 1013814.6728772864 106.4 74 07 16 4668
627760.3075944774 1013827.901632442 80.1 74 07 21 4668
627787.2009696233 1013846.8869558666 99.8 74 07 24 4668
627821.9022269987 1013867.3904157524 114.6 74 07 28 4668
627850.199115475 1013911.0509965386 90.6 74 07 32 4668
627867.8114661528 1013911.7272711104 81.7 74 07 36 4668
627872.3821588503 1013915.2806684793 103.0 74 07 40 4668
