627606.6489914403 1013935.3099313526 100.6 54 10 36 4671
627643.1553814007 1013927.6761703977 118.0 54 10 40 4671
627642.9209089138 1013928.825456228 103.7 54 10 44 4671
627660.2446223787 1013974.5956903861 98.9 54 10 48 4671
627652.130530005 1014023.6121916785 99.1 54 10 52 4671
627659.681894745 1014019.5008687285 115.6 54 10 57 4671
627660.7322345449 1014020.9086446686 123.9 54 11 01 4671
627661.7254385075 1014019.5959400521 121.1 54 11 02 4671
627656.7316894478 1014010.943409969 94.0 54 11 04 4671
627656.8822094316 1014005.1715615174 92.0 54 11 09 4671
627650.0577480582 1013974.772865073 63.9 54 11 12 4671
627644.3877218601 1013981.5663349245 89.5 54 11 16 4671
627649.7744549675 1013984.226635699 101.3 54 11 20 4671
627643.9098512122 1013973.0279274924 98.3 54 11 24 4671
627641.130930323 1013993.0673031982 114.6 54 11 28 4671
627681.4675509993 1013993.6842585547 99.1 54 11 32 4671
627726.2461423519 1013976.5009981106 51.2 54 11 36 4671
627747.7892950091 1013984.9085015627 110.0 54 11 40 4671
627743.7817820815 1013990.6899906333 113.6 54 11 41 4671
627747.716978159 1013976.6920872862 96.4 54 11 44 4671
627752.5209420825 1013965.8817319853 83.4 54 11 48 4671
627756.3916197643 1013958.2420371644 102.0 54 11 52 4671
627766.0876545846 1013943.3560060718 114.0 54 11 56 4671
627785.6395631351 1013949.0920803288 88.7 54 12 00 4671
627798.1203032281 1013875.0541370081 81.6 54 12 08 4671
627827.1917178206 1013866.1469095742 88.0 54 12 12 4671
627858.6974484085 1013862.2237362188 78.3 54 12 16 4671
627908.1010767154 1013882.785936638 62.5 54 12 20 4671
627899.8500578209 1013882.3721811572 73.3 54 12 24 4671
627903.8933337352 1013892.7025023954 65.0 54 12 28 4671
627892.9066487543 1013861.6046613877 66.3 54 12 32 4671
627890.3242263654 1013868.4302176702 52.5 54 12 36 4671
627863.553255436 1013835.4124581626 70.0 54 12 40 4671
627842.1041330595 1013835.276676713 77.4 54 12 44 4671
627837.4591919275 1013820.7091581316 86.7 54 12 48 4671
627833.1643764363 1013820.1865840917 96.8 54 12 52 4671
627833.2427635035 1013823.1282972825 87.3 54 12 56 4671
627811.5467483256 1013794.0194663001 82.8 54 13 00 4671
627744.9292627776 1013775.2152629445 103.6 54 13 08 4671
627729.1857468578 1013764.0841184008 96.5 54 13 12 4671
627695.1183132539 1013778.61491004 -13.8 54 13 16 4671
627712.2943246429 1013727.3386787823 85.3 54 13 20 4671
627721.110084471 1013729.8220839938 77.9 54 13 24 4671
627719.9676355193 1013716.1173870586 58.5 54 13 28 4671
627729.5707916423 1013692.5835975736 73.7 54 13 32 4671
627708.7599107268 1013705.741814342 54.0 54 13 36 4671
627700.8072859154 1013684.3960624336 70.5 54 13 40 4671
627605.639548708 1013757.9898701438 90.1 54 13 56 4671
627598.4681582681 1013756.7171366443 84.7 54 14 00 4671
627584.1823312885 1013750.146705996 84.7 54 14 08 4671
627601.1977118006 1013755.3547486784 97.1 54 14 12 4671
627612.6506142488 1013757.8687651583 107.1 54 14 16 4671
627598.4170821097 1013762.3234332177 98.9 54 14 20 4671
627595.8876723213 1013773.1632677384 76.7 54 14 25 4671
627603.1271697185 1013756.7543035933 95.4 54 14 28 4671
627610.7693495161 1013741.5519750514 96.9 54 14 32 4671
627613.9293072326 1013715.8078457633 90.8 54 14 36 4671
627627.4581223192 1013722.0109225205 95.7 54 14 40 4671
627631.0546174869 1013714.2044588717 80.9 54 14 44 4671
627690.2758858387 1013706.1465001234 85.5 54 14 48 4671
627739.3065828673 1013695.998862492 76.5 54 14 52 4671
627732.0590003275 1013701.2943790425 67.1 54 14 56 4671
627715.4025244449 1013673.4404251442 78.1 54 15 00 4671
627678.2389388895 1013642.943656184 69.8 54 15 08 4671
627647.1997490766 1013641.870234529 59.8 54 15 12 4671
627597.8948784687 1013624.6261703495 70.2 54 15 16 4671
627556.7103074773 1013641.4784205154 71.5 54 15 20 4671
627513.5226698742 1013659.3194729734 67.9 54 15 24 4671
627509.469046783 1013658.9635870835 69.5 54 15 28 4671
627510.1495134581 1013655.8142233455 84.0 54 15 32 4671
627517.0942583121 1013642.2019956572 98.7 54 15 36 4671
627521.0098108917 1013644.4815468887 96.6 54 15 40 4671
627527.0499884766 1013662.5921076398 84.8 54 15 44 4671
627516.96139209 1013645.9170903985 83.3 54 15 48 4671
627511.5453344184 1013628.4941493338 83.6 54 15 52 4671
627492.2921033817 1013622.0846565079 74.4 54 15 56 4671
627540.5111953508 1013584.2335895672 91.9 54 16 00 4671
627525.197018038 1013555.7979948026 72.1 54 16 08 4671
627506.9210211112 1013539.3951267069 64.8 54 16 12 4671
627534.6990579896 1013522.7096397774 83.4 54 16 16 4671
627532.8965593969 1013498.9952423468 62.9 54 16 20 4671
627564.5008753497 1013481.6254617674 102.3 54 16 24 4671
627602.4306516433 1013479.1050539284 77.3 54 16 28 4671
627656.1811125388 1013467.280633416 119.0 54 16 32 4671
627665.9107101952 1013465.8302833657 86.8 54 16 37 4671
627669.74361469 1013452.8825628089 73.0 54 16 40 4671
627679.1052700817 1013439.4772089041 59.7 54 16 44 4671
627695.695895183 1013440.1500777126 69.7 54 16 48 4671
627697.868741146 1013437.6469087631 67.9 54 16 52 4671
627665.4254688454 1013435.7617136578 68.3 54 17 01 4671
627668.2390612792 1013404.9960839378 94.9 54 17 04 4671
627663.8938507794 1013406.4527733304 90.0 54 17 05 4671
627665.8810348121 1013403.5951433098 98.0 54 17 08 4671
627679.4757056747 1013396.2522516537 88.9 54 17 12 4671
627695.8656255542 1013397.8312347673 93.4 54 17 16 4671
627709.141849955 1013397.2217131635 94.9 54 17 20 4671
627711.0369806684 1013402.4472670145 84.4 54 17 24 4671
627699.1247275342 1013395.8291911016 89.6 54 17 28 4671
627678.9039742996 1013375.9477135646 99.3 54 17 32 4671
627664.4786203229 1013361.5034461039 111.8 54 17 36 4671
627655.7911560038 1013363.4990137462 89.7 54 17 40 4671
627621.8427942836 1013402.3138969844 112.0 54 17 44 4671
627621.2135091264 1013406.6245267844 95.1 54 17 48 4671
627590.630751194 1013424.0860358139 39.6 54 17 52 4671
627594.4735639873 1013455.7025166118 97.8 54 17 56 4671
627591.4505517969 1013456.0576720058 107.3 54 18 00 4671
627590.9218546429 1013456.4429984839 102.4 54 18 08 4671
627598.0596316822 1013454.5308797918 91.6 54 18 12 4671
627585.4806069836 1013463.8343598002 125.4 54 18 16 4671
627595.2356364036 1013451.1048047633 92.6 55 06 00 4671
627598.5381464763 1013449.2687657637 95.6 55 06 24 4671
627604.9038104049 1013434.6483885067 101.5 55 06 28 4671
627611.0424363047 1013429.0838691246 112.5 55 06 32 4671
627613.4544051306 1013430.7946076975 113.8 55 06 36 4671
627610.4533207354 1013434.5667881535 110.1 55 06 40 4671
627615.7776086488 1013432.7704543535 101.8 55 06 52 4671
627615.3001747739 1013434.2949313037 107.3 55 06 56 4671
627610.9926722801 1013427.4802827165 103.6 55 07 00 4671
627609.8131667853 1013435.4383112284 92.8 55 07 08 4671
627605.5132020696 1013436.4970605932 92.0 55 07 12 4671
627594.859028196 1013452.0324696256 96.0 55 07 16 4671
627596.4392482572 1013445.889264761 99.6 55 07 20 4671
627598.6062243684 1013458.8121327257 106.5 55 07 24 4671
627602.4808744374 1013460.1516188128 105.7 55 07 28 4671
627594.0442017656 1013452.5495693631 90.5 55 07 32 4671
627596.0179768725 1013457.2445810314 104.8 55 07 36 4671
627600.3013650686 1013451.1101058617 94.4 55 07 48 4671
627594.1926227955 1013450.8249838548 81.3 55 07 52 4671
627590.8549336904 1013453.3465122473 86.0 55 07 56 4671
627586.318956825 1013445.8234098935 95.9 55 08 00 4671
627592.4350655968 1013440.4246870531 107.7 55 08 08 4671
627595.6007407462 1013443.5311799989 91.3 55 08 32 4671
627595.6176112387 1013445.1125438841 87.1 55 08 37 4671
627590.5189327046 1013451.9078732398 96.6 55 08 40 4671
627589.0666408523 1013449.0612498793 62.6 55 08 44 4671
627595.1784952931 1013458.5909591995 75.3 55 08 48 4671
627588.8456927246 1013449.4254539509 65.5 55 08 52 4671
627593.1077263595 1013449.9036574799 63.5 55 08 56 4671
627591.7526687003 1013454.3778152529 69.1 55 09 00 4671
627570.6115266765 1013457.4942857294 110.2 55 09 16 4671
627589.1272512773 1013450.709103622 92.7 55 09 32 4671
627587.9108927087 1013459.8723469448 90.7 55 09 36 4671
627595.8612761939 1013447.9220901247 90.8 55 10 00 4671
627612.2790291103 1013430.6691723891 81.0 55 10 20 4671
627599.1755710815 1013442.4369136075 83.4 55 10 24 4671
627589.7018427466 1013432.7083600623 86.6 55 10 28 4671
627557.2999878166 1013469.0512623946 90.9 55 10 32 4671
627561.5837313199 1013476.4187332982 94.4 55 10 37 4671
627556.0825872247 1013485.3469811103 92.9 55 10 40 4671
627541.9866259438 1013501.6232401781 54.3 55 10 44 4671
627549.2168041207 1013494.9121940911 80.6 55 11 00 4671
627528.4361368631 1013495.2984956184 79.2 55 11 09 4671
627531.3906938437 1013553.5953084842 128.3 55 11 12 4671
627522.9775055837 1013593.1893445461 101.7 55 11 16 4671
627500.1566705198 1013602.6588312485 92.6 55 11 20 4671
627493.6205979194 1013622.4317452029 84.9 55 11 24 4671
627484.9936403579 1013622.7245893338 90.2 55 11 28 4671
627514.9443593265 1013583.1337128922 101.6 55 11 32 4671
627518.0890493784 1013585.930505845 98.8 55 11 36 4671
627516.4415674657 1013585.681909797 98.0 55 11 40 4671
627488.1888130028 1013623.4979098124 92.3 55 11 44 4671
627483.3501332552 1013651.8905660775 95.5 55 11 48 4671
627505.434438076 1013659.5255857658 61.4 55 11 52 4671
627530.3871431907 1013667.0371818249 107.0 55 11 56 4671
627514.464926116 1013660.1739886878 92.4 55 12 00 4671
627508.8374745818 1013650.3694002703 84.7 55 12 04 4671
627509.324743925 1013652.6047104461 92.5 55 12 05 4671
627509.7262065781 1013657.5932120251 63.2 55 12 08 4671
627509.4181939386 1013667.9094305943 88.3 55 12 12 4671
627559.0283470101 1013662.0650436762 80.5 55 12 16 4671
627582.5382720921 1013650.1760930294 104.0 55 12 20 4671
627574.0285727432 1013654.9920619719 76.6 55 12 24 4671
627602.1425029824 1013609.1474795911 64.7 55 12 28 4671
627627.5069146331 1013581.0644096114 14.8 55 12 32 4671
627640.2115215452 1013566.8957832531 73.2 55 12 36 4671
627653.7666303255 1013561.5763963491 80.6 55 12 40 4671
627637.2537743063 1013574.2619866871 43.8 55 12 44 4671
627640.2594103051 1013572.4802835416 40.0 55 12 48 4671
627637.6174898238 1013560.3188851582 48.3 55 12 52 4671
627652.2675808143 1013542.5958353146 60.6 55 12 56 4671
627687.8256102904 1013542.9097875992 27.5 55 13 00 4671
627739.4834117822 1013508.7745099795 45.2 55 13 08 4671
627706.2328081081 1013498.3055684379 63.7 55 13 12 4671
627675.1518161675 1013486.328706957 64.0 55 13 16 4671
627670.4340042991 1013480.6738253928 73.7 55 13 20 4671
627645.6530485825 1013481.1908958186 55.6 55 13 24 4671
627650.1794557133 1013495.0723893851 69.8 55 13 28 4671
627630.4170128143 1013482.9994380758 55.6 55 13 32 4671
627612.1963154703 1013476.6927523151 56.3 55 13 36 4671
627605.990052905 1013503.2011095423 56.8 55 13 40 4671
627598.9716544071 1013495.3714180242 35.6 55 13 44 4671
627595.2876872418 1013564.2847090042 53.1 55 13 48 4671
627589.0893298814 1013567.9359826188 55.0 55 13 52 4671
627564.9140490876 1013608.9056096235 75.1 55 13 56 4671
627542.3161225853 1013648.0336346484 69.1 55 14 00 4671
627570.6128090239 1013766.7563901404 100.3 55 14 08 4671
627602.1404212199 1013766.2721483944 94.6 55 14 12 4671
627596.2252048821 1013774.1264136357 83.0 55 14 16 4671
627600.5440025753 1013774.0297842016 90.8 55 14 20 4671
627609.282860766 1013762.9003830604 108.6 55 14 24 4671
627608.4257235366 1013756.1079344074 96.3 55 14 28 4671
627617.1672564568 1013754.3558204281 111.5 55 14 32 4671
627630.6974864176 1013760.1165803111 102.5 55 14 36 4671
627644.3776729953 1013743.2750506046 114.1 55 14 40 4671
627665.4199347702 1013712.9111308422 78.6 55 14 44 4671
627756.3748524341 1013705.2433544503 73.0 55 14 48 4671
627734.5363333051 1013689.5807888495 89.6 55 14 52 4671
627750.756666408 1013709.5820815848 82.2 55 14 56 4671
627745.3289746459 1013702.5868579777 82.4 55 15 00 4671
627851.1526676714 1013755.6543360013 87.5 55 15 16 4671
627854.9190793495 1013766.6582973568 81.2 55 15 20 4671
627858.8953786974 1013773.9252945852 91.9 55 15 24 4671
627861.2497257289 1013773.0593243706 70.6 55 15 28 4671
627880.882934314 1013770.6790394472 59.3 55 15 32 4671
627881.9438204385 1013741.6770260656 37.3 55 15 36 4671
627892.3162247535 1013721.5516555853 69.7 55 15 40 4671
627876.3981186696 1013716.8335940639 60.4 55 15 44 4671
627912.7347657959 1013714.1977714248 82.6 55 15 48 4671
627890.4360186385 1013681.1834309676 46.3 55 15 52 4671
627889.5229157052 1013664.538004839 49.5 55 15 56 4671
627869.1442678572 1013639.1931756007 60.4 55 16 00 4671
627836.6761392223 1013645.0373611781 42.5 55 16 08 4671
627850.1718030425 1013634.3214875316 71.6 55 16 12 4671
627819.610293321 1013638.4357335237 67.5 55 16 16 4671
627821.7015959476 1013630.5691209814 94.5 55 16 20 4671
627736.344828252 1013674.0168122144 61.9 55 16 24 4671
627750.8524374076 1013679.9687601422 104.5 55 16 28 4671
627733.2156204631 1013703.8193691219 97.7 55 16 32 4671
627715.2162880776 1013710.6503746519 115.9 55 16 36 4671
627674.8836856408 1013729.0976201554 113.1 55 16 40 4671
627605.5115381128 1013767.0018161439 101.5 55 16 44 4671
627615.9979222186 1013769.368956204 99.9 55 16 48 4671
627618.5157777556 1013758.7060146887 67.4 55 16 52 4671
627623.4191940804 1013754.5197755081 88.3 55 16 56 4671
627639.4897272877 1013756.2746521094 113.5 55 17 00 4671
627622.6961148715 1013818.466492983 81.3 55 17 08 4671
627641.5242612301 1013810.1674029029 124.6 55 17 12 4671
627654.7352691679 1013816.0930141369 141.3 55 17 16 4671
627643.6958342821 1013814.8520019224 136.3 55 17 21 4671
627686.8604033147 1013831.3132967169 119.9 55 17 24 4671
627715.7474002866 1013842.0556593693 115.3 55 17 28 4671
627720.0556943294 1013838.4093552112 119.7 55 17 32 4671
627763.2940283043 1013859.2278773193 126.8 55 17 36 4671
627795.9369080896 1013874.0297251701 100.7 55 17 40 4671
627805.8405315118 1013896.8746692287 85.3 55 17 44 4671
627813.370880488 1013872.1067383226 103.1 55 17 48 4671
627855.0174934206 1013841.4889075635 96.5 55 17 52 4671
627884.9473511062 1013815.2121899612 89.2 55 17 56 4671
627892.0253546793 1013807.992039141 93.4 55 18 00 4671
627875.720898184 1013807.220471001 96.9 55 18 08 4671
627873.9333381858 1013799.3302443095 93.5 55 18 12 4671
627876.1051366921 1013803.9374534183 95.5 55 18 16 4671
627872.980352298 1013801.7931197111 99.7 55 18 20 4671
627870.2657879216 1013801.917028862 93.7 55 18 24 4671
627884.2424336803 1013791.965739106 81.5 56 06 00 4671
627887.867525667 1013799.0989057922 90.8 56 06 20 4671
627890.1305597299 1013802.6780060986 92.9 56 06 24 4671
627888.1944888139 1013803.3241663822 85.8 56 06 28 4671
627883.4442450922 1013800.92023201 78.8 56 06 32 4671
627877.2846187879 1013802.7912276355 61.0 56 06 36 4671
627878.0341570844 1013802.0748765583 86.0 56 06 40 4671
627898.1097042394 1013883.6603453399 66.2 56 06 56 4671
627905.4345893658 1013881.6383144333 64.8 56 07 00 4671
627897.2200342432 1013886.9306680731 67.5 56 07 08 4671
627899.3503578905 1013880.5902054213 77.1 56 07 12 4671
627902.2970283468 1013883.4416852171 71.1 56 07 16 4671
627906.4602689056 1013880.4805334428 68.8 56 07 20 4671
627910.083956586 1013884.6501229366 61.6 56 07 24 4671
627905.299195241 1013875.9429434901 76.3 56 07 28 4671
627863.2026874127 1013858.8434786636 58.9 56 07 32 4671
627875.5429194904 1013868.9794948907 69.7 56 07 36 4671
627874.6810374943 1013860.2739638006 78.9 56 07 44 4671
627875.4631266627 1013880.0484148455 81.6 56 07 48 4671
627878.4137765778 1013878.2776112225 86.8 56 07 52 4671
627872.2189741785 1013884.2289385591 70.8 56 07 56 4671
627927.1043817819 1013884.8821805954 147.7 56 08 00 4671
627907.9539894054 1013890.8800051558 70.5 56 08 16 4671
627908.8637389244 1013888.1958280235 78.4 56 08 20 4671
627895.0228908336 1013890.1525242691 64.9 56 08 24 4671
627900.6515838488 1013892.7472945047 79.5 56 08 28 4671
627893.7620821705 1013896.0534779531 84.3 56 08 32 4671
627889.3088729123 1013883.3664508734 109.3 56 08 36 4671
627858.2787014935 1013876.1666693395 101.7 56 08 40 4671
627852.3214635613 1013869.8331979165 87.1 56 08 44 4671
627877.4272316742 1013867.3489941199 123.4 56 08 48 4671
627850.4729498258 1013857.010853788 65.6 56 08 52 4671
627857.5898770394 1013861.5234891383 90.6 56 08 56 4671
627875.1188640151 1013887.9538561531 74.2 56 09 00 4671
627913.252093814 1013914.1192198694 73.5 56 09 08 4671
627907.9805413217 1013913.2174965952 75.5 56 09 12 4671
627918.4375942175 1013917.8404862554 72.0 56 09 16 4671
627909.0000535527 1013917.3565360277 80.4 56 09 20 4671
627895.3145455972 1013925.6389793128 95.7 56 09 40 4671
627879.1321240256 1013921.1301539293 79.2 56 09 44 4671
627843.7026192269 1013935.5237004622 79.2 56 09 48 4671
627849.5659705875 1013926.7293603433 72.8 56 09 52 4671
627853.1019705309 1013978.3490528202 92.6 56 09 56 4671
627874.9813293415 1013994.907552755 82.0 56 10 00 4671
627892.2778216883 1014008.2775437958 68.4 56 10 08 4671
627900.4039308946 1014009.9294061662 94.0 56 10 12 4671
627899.7601248105 1014045.8551590968 88.5 56 10 16 4671
627902.9445847294 1014049.9238043966 81.9 56 10 20 4671
627908.9144481705 1014059.132441281 94.3 56 10 24 4671
627905.8769570934 1014053.7925872965 70.0 56 10 28 4671
627917.6895560811 1014040.21830274 92.7 56 10 32 4671
627930.0030411304 1014028.0610832118 132.4 56 10 36 4671
627920.7112226109 1014047.0509529782 98.7 56 10 40 4671
627913.4841418978 1014052.8109396296 71.0 56 10 45 4671
627968.7436634416 1014083.7536849249 86.4 56 10 49 4671
627983.921656286 1014042.1579778703 116.2 56 10 52 4671
627984.821875592 1014042.41523244 117.8 56 10 53 4671
627960.2308726079 1014052.2325592643 65.1 56 10 56 4671
627968.7202391686 1014033.3396190923 94.3 56 11 00 4671
627926.0860037673 1013931.278762668 87.0 56 11 08 4671
627924.6279897726 1013930.212460077 84.8 56 11 09 4671
627927.7543199125 1013894.5601427158 90.0 56 11 13 4671
627907.2896433977 1013889.0422054119 95.9 56 11 16 4671
627915.6118919299 1013887.8195913259 78.4 56 11 20 4671
627920.8145163172 1013886.2551307561 78.2 56 11 24 4671
627926.2114856766 1013889.1477235206 70.2 56 11 28 4671
627917.2388955038 1013901.1720139892 66.6 56 11 32 4671
627926.4293845441 1013937.2180866709 95.8 56 11 36 4671
627887.0257834181 1013943.6700488647 36.3 56 11 40 4671
627910.9122446653 1013917.2963805062 71.7 56 11 44 4671
627905.5873853894 1013922.675497875 80.9 56 11 48 4671
627903.1520208664 1013918.0231995092 57.9 56 11 52 4671
627907.3740256312 1013917.2738628668 70.0 56 11 56 4671
627896.4405246711 1013873.1497250034 57.0 56 12 00 4671
627851.5359990463 1013844.3085160471 71.5 56 12 20 4671
627865.3097491203 1013839.3216608297 99.0 56 12 24 4671
627821.4006138325 1013839.0357774546 53.3 56 12 36 4671
627848.0158134717 1013845.5024560345 68.8 56 12 40 4671
627861.5613069785 1013849.9253204691 97.0 56 12 44 4671
627829.7763851967 1013865.4143811008 75.4 56 12 48 4671
627846.6549299252 1013875.5319022795 101.1 56 12 52 4671
627854.7852872419 1013886.0634351083 74.0 56 12 56 4671
627895.1850665666 1013890.9713504018 74.9 56 13 00 4671
627914.0872874287 1013893.7418066026 59.5 56 13 08 4671
627912.3468912244 1013898.4358714864 50.1 56 13 12 4671
627909.640277168 1013899.4997431851 62.2 56 13 16 4671
627918.1858155314 1013890.4044703406 63.6 56 13 20 4671
627911.0211919777 1013883.6579274345 65.8 56 13 24 4671
627901.9409295005 1013881.4279539384 75.3 56 13 28 4671
627911.3828056805 1013883.9687260044 65.9 56 13 32 4671
627922.148925185 1013925.4826117672 70.6 56 13 36 4671
627916.8443205261 1013948.3557423684 76.7 56 13 40 4671
627886.2729120017 1013948.8096370973 59.1 56 13 44 4671
627901.5759759555 1013966.9723992184 79.1 56 13 48 4671
627908.1170414397 1013972.8543892486 69.3 56 13 52 4671
627902.9429968713 1013989.3474069954 65.2 56 13 56 4671
627889.1385456887 1014014.0065419347 77.0 56 14 00 4671
627873.1017310937 1014008.6577686406 84.3 56 14 08 4671
627859.0777803541 1013968.7588939066 80.6 56 14 12 4671
627875.1416803327 1013938.6001214265 88.0 56 14 16 4671
627902.8720580448 1013933.216151696 99.7 56 14 20 4671
627900.1992711823 1013934.0147383631 103.4 56 14 24 4671
627886.4468144396 1013881.5325932447 74.8 56 14 32 4671
627896.5947710427 1013886.5968996075 47.6 56 14 36 4671
627904.677382119 1013888.115921248 61.8 56 14 40 4671
627915.9503248674 1013881.7166042838 66.6 56 14 44 4671
627919.6467826976 1013883.7743292218 53.7 56 14 48 4671
627915.2525277758 1013890.2069816871 54.1 56 14 52 4671
627926.0106744044 1013910.4339581939 66.0 56 14 56 4671
627942.5284131556 1013936.9384955859 69.0 56 15 00 4671
627940.7604038062 1013946.7634390891 78.1 56 15 08 4671
627930.6512002053 1013939.9188863296 68.2 56 15 12 4671
627916.1502573227 1013935.3380846259 51.1 56 15 16 4671
627913.101534687 1013828.2855930014 79.9 56 15 32 4671
627912.6572953316 1013816.1644534292 65.9 56 15 36 4671
627916.6337823939 1013809.796795649 65.6 56 15 40 4671
627898.6276499407 1013818.7287368114 44.7 56 15 44 4671
627937.7325080968 1013795.9871889455 49.2 56 15 52 4671
627932.2916785823 1013759.1349625527 42.3 56 15 56 4671
627910.510447342 1013742.775810479 40.9 56 16 00 4671
627888.8842124665 1013732.8419423149 57.2 56 16 08 4671
627879.0069120766 1013732.4118718136 45.8 56 16 12 4671
627902.9459876395 1013703.3954653802 83.4 56 16 16 4671
627873.7887596675 1013667.483819448 55.7 56 16 20 4671
627843.8867619383 1013685.1242569222 60.8 56 16 24 4671
627834.1529418183 1013681.1007753599 76.7 56 16 28 4671
627816.0155366639 1013700.0288716896 71.4 56 16 32 4671
627839.4002551737 1013675.9204412643 111.3 56 16 36 4671
627813.4705535116 1013671.5128115574 77.5 56 16 40 4671
627812.6306238404 1013689.9771490453 87.9 56 16 44 4671
627794.2407146972 1013708.8380878933 78.4 56 16 48 4671
627791.4354892796 1013692.8279184068 126.3 56 16 52 4671
627774.3176669287 1013709.0943233027 72.5 56 16 56 4671
627750.315673645 1013727.0193024395 84.1 56 17 00 4671
627640.096501926 1013758.930559527 82.3 56 17 08 4671
627630.3371771905 1013769.6032751213 139.7 56 17 12 4671
627614.5689811646 1013766.1021969736 113.0 56 17 16 4671
627615.7339081827 1013817.0727915368 129.0 56 17 20 4671
627589.1232689964 1013846.600438471 149.5 56 17 24 4671
627526.4400978326 1013865.108311296 108.4 56 17 28 4671
627523.3360740092 1013927.9968052886 80.2 56 17 32 4671
627513.5843607093 1013919.3178776676 87.3 56 17 36 4671
627514.0209399113 1013916.8312131038 85.9 56 17 40 4671
627513.1587782736 1013918.398680642 86.7 56 17 44 4671
627513.1263844669 1013918.2216463308 87.1 56 17 48 4671
627511.8917256374 1013919.4451098553 84.5 56 17 52 4671
627509.7924143565 1013919.6042034071 86.4 56 17 56 4671
627511.1202558131 1013920.1503378658 93.6 56 18 00 4671
627515.4387234052 1013916.7473259768 74.5 57 06 16 4671
627511.8772191217 1013913.7280214967 83.8 57 06 20 4671
627511.9705446368 1013915.4533875701 80.5 57 06 24 4671
627523.900105083 1013920.0699632395 59.0 57 06 28 4671
627519.5533386337 1013952.6552293289 78.0 57 06 32 4671
627523.1330885666 1013973.8430655524 64.0 57 06 36 4671
627515.9599243351 1013983.3409335619 62.3 57 06 40 4671
627521.2811522321 1013989.2742042339 65.9 57 06 44 4671
627523.6724515167 1013983.7639302857 71.4 57 06 48 4671
627546.0337377237 1013881.7587450983 80.9 57 06 52 4671
627532.9589603867 1013860.8719892298 116.6 57 06 56 4671
627561.7965545801 1013829.0735328322 96.7 57 07 00 4671
627606.731071933 1013767.0610465484 98.0 57 07 08 4671
627599.5864185728 1013771.1184078767 103.9 57 07 12 4671
627597.7112444396 1013756.3165995758 105.7 57 07 16 4671
627621.8927029736 1013761.0391285699 100.5 57 07 20 4671
627633.6987835875 1013752.8721575681 95.7 57 07 24 4671
627645.7195445677 1013770.0842486566 105.8 57 07 28 4671
627648.7522694452 1013783.7176428107 116.3 57 07 32 4671
627649.8322772306 1013782.7480193289 97.6 57 07 36 4671
627680.8066835226 1013776.6334746523 96.4 57 07 40 4671
627686.8686783345 1013753.9728814232 96.4 57 07 44 4671
627718.5766114133 1013724.9151479272 89.4 57 07 48 4671
627713.7330135333 1013686.8042864744 76.8 57 07 52 4671
627739.8454447913 1013695.8679076761 86.3 57 07 56 4671
627696.9883537452 1013682.8245230648 58.3 57 08 00 4671
627701.141450914 1013676.2030810937 88.9 57 08 08 4671
627681.7707362036 1013689.1558634839 95.4 57 08 12 4671
627680.9994376762 1013689.8057990521 97.6 57 08 13 4671
627660.0125457298 1013703.0298193289 80.5 57 08 16 4671
627649.4054155445 1013727.821000446 112.1 57 08 20 4671
627607.2552515345 1013754.4675527788 106.4 57 08 24 4671
627637.7558820015 1013755.5502721274 130.0 57 08 28 4671
627634.8940388664 1013763.8456658032 103.6 57 08 32 4671
627614.365784996 1013754.169839597 106.9 57 08 36 4671
627603.519487076 1013761.1677567862 102.6 57 08 40 4671
627598.0217912591 1013752.0270562504 103.6 57 08 44 4671
627629.8118274802 1013779.1557853335 97.0 57 08 48 4671
627642.9459648754 1013778.2693460148 108.3 57 08 52 4671
627651.6626240073 1013777.412866735 100.4 57 08 56 4671
627661.338734425 1013789.0883311994 176.8 57 09 00 4671
627664.3878803208 1013756.8416736069 44.6 57 09 04 4671
627661.5529130236 1013743.219975267 23.8 57 09 08 4671
627726.9141300243 1013701.9854622239 95.0 57 09 25 4671
627717.6784928078 1013713.8098979136 118.7 57 09 33 4671
627722.3121848663 1013718.2813000458 130.8 57 09 37 4671
627756.3294235452 1013702.301748946 30.8 57 09 41 4671
627728.4051698192 1013750.6128110765 140.2 57 09 44 4671
627751.8492004494 1013789.6795422547 112.1 57 09 48 4671
627785.7103310951 1013747.215328706 82.0 57 09 52 4671
627760.7293939438 1013724.6754885032 82.6 57 09 56 4671
627759.3363768809 1013727.2917562525 83.2 57 10 00 4671
627734.0239540422 1013722.3000918195 82.9 57 10 08 4671
627733.713335559 1013719.8110116654 98.6 57 10 09 4671
627733.9304074718 1013693.4602275603 124.0 57 10 12 4671
627723.8718262074 1013708.3119243468 70.3 57 10 17 4671
627692.3797425601 1013694.3874691677 81.6 57 10 20 4671
627684.4956153282 1013689.2420779524 95.0 57 10 21 4671
627668.2654122479 1013679.0825054286 98.8 57 10 24 4671
627651.3906697128 1013654.147221656 137.0 57 10 28 4671
627597.1558213916 1013676.5305466308 69.2 57 10 32 4671
627549.0860963989 1013664.7311186689 89.4 57 10 37 4671
627493.5966230002 1013657.0988275617 104.5 57 10 40 4671
627504.5121860097 1013666.0911237834 88.9 57 10 44 4671
627494.2195409646 1013654.7565196626 96.9 57 10 48 4671
627518.2729366934 1013668.5351511495 68.1 57 10 52 4671
627510.1752024234 1013654.6642632558 79.8 57 10 56 4671
627526.3801452431 1013669.2579834198 81.9 57 11 00 4671
627550.882494738 1013690.3253796274 82.7 57 11 08 4671
627543.7047117609 1013714.8512016444 94.0 57 11 12 4671
627530.2128155088 1013738.0517811684 94.1 57 11 16 4671
627508.5065383626 1013739.2755044948 68.3 57 11 20 4671
627488.6430194734 1013751.7402224368 81.6 57 11 24 4671
627425.1542885975 1013733.8092175883 100.8 57 11 28 4671
627399.8521796613 1013708.5814781226 75.5 57 11 32 4671
627390.6644384062 1013705.5882754588 92.0 57 11 36 4671
627349.2725668527 1013677.7321520663 66.7 57 11 40 4671
627323.4938108244 1013687.8556797387 58.8 57 11 44 4671
627325.6862686311 1013682.6654398291 58.3 57 11 48 4671
627322.6985462836 1013689.1247978627 58.1 57 11 53 4671
627324.221551554 1013690.4898530664 59.5 57 12 00 4671
627343.0436848158 1013711.3176378853 52.0 57 12 16 4671
627363.0483973359 1013709.5796633938 59.8 57 12 20 4671
627370.5983708947 1013695.6818580608 33.8 57 12 24 4671
627375.8281419312 1013695.9198834721 66.6 57 12 28 4671
627381.4090562689 1013682.6792162553 58.7 57 12 32 4671
627381.0328063136 1013659.6439779107 73.0 57 12 36 4671
627390.6820006229 1013638.8084560559 66.4 57 12 40 4671
627393.3371247877 1013633.2658512843 72.7 57 12 44 4671
627415.0169958712 1013616.3947578989 61.2 57 12 48 4671
627403.3365558702 1013602.6450405051 87.4 57 12 52 4671
627435.2690683882 1013602.714860155 78.2 57 12 56 4671
627448.5198090246 1013609.978547692 74.2 57 13 00 4671
627500.1305656319 1013655.0078177265 79.7 57 13 08 4671
627511.6468452627 1013668.535878356 86.9 57 13 12 4671
627518.0087563823 1013665.2721570244 65.8 57 13 16 4671
627509.1339270923 1013640.230074169 126.8 57 13 20 4671
627506.9904736283 1013637.0384212498 81.1 57 13 24 4671
627496.8296987901 1013642.722667125 79.9 57 13 28 4671
627489.2526898937 1013627.5264933419 53.4 57 13 32 4671
627504.8975005761 1013635.229194623 77.4 57 13 36 4671
627505.3785279691 1013608.7576426405 77.3 57 13 40 4671
627502.0413967519 1013607.7074100869 92.3 57 13 44 4671
627496.5851281267 1013578.9055531254 79.9 57 13 48 4671
627495.780671978 1013555.78045972 84.0 57 13 52 4671
627520.831790952 1013549.8457018237 79.4 57 13 56 4671
627532.2772819606 1013520.633956496 80.7 57 14 00 4671
627544.8115513512 1013484.3374814622 85.7 57 14 08 4671
627560.6236411055 1013487.8939483507 89.1 57 14 12 4671
627565.9230063921 1013490.4101902304 57.8 57 14 16 4671
627598.9648580191 1013500.8783339352 86.3 57 14 20 4671
627577.7039205965 1013483.2494012727 78.4 57 14 24 4671
627585.0891709576 1013472.7569885519 80.4 57 14 28 4671
627612.9855811335 1013460.2740104162 74.6 57 14 32 4671
627626.9189975014 1013446.7064830072 112.4 57 14 36 4671
627619.5681269153 1013436.3434080414 112.6 57 14 40 4671
627607.3398741046 1013432.3008788648 81.9 57 14 44 4671
627637.5834908776 1013441.5878530503 87.9 57 14 48 4671
627661.106883317 1013435.7809346552 114.8 57 14 52 4671
627643.6434996931 1013416.1406036905 67.4 57 14 56 4671
627639.1732336303 1013429.0973250903 79.5 57 15 00 4671
627666.4863989346 1013427.0955831966 73.2 57 15 08 4671
627675.8938631158 1013450.5249422761 71.0 57 15 12 4671
627684.8889165604 1013462.1539680221 90.6 57 15 16 4671
627681.1976245694 1013465.2825428067 72.5 57 15 20 4671
627657.4218908674 1013481.1736285919 73.9 57 15 24 4671
627662.9019081601 1013478.7917249382 74.9 57 15 28 4671
627648.356919871 1013491.1851045011 68.5 57 15 32 4671
627679.2498403898 1013506.9542687172 95.7 57 15 36 4671
627648.5974263214 1013505.1743905931 34.2 57 15 40 4671
627656.3650702714 1013519.1769388535 52.0 57 15 44 4671
627659.4251890474 1013517.5391680421 53.3 57 15 48 4671
627662.4764443991 1013511.8430422369 46.3 57 15 52 4671
627623.1357383905 1013505.5234021604 54.2 57 15 56 4671
627639.7378513016 1013499.2296789739 77.2 57 16 00 4671
627631.8355811054 1013513.2921819848 57.8 57 16 08 4671
627624.7328202733 1013548.5888384742 65.3 57 16 12 4671
627640.1866198138 1013550.7950946809 112.9 57 16 16 4671
627670.4875991432 1013549.101588267 116.9 57 16 20 4671
627654.929015614 1013569.121783609 83.9 57 16 24 4671
627650.9185860831 1013568.9982441388 82.5 57 16 28 4671
627655.9056852477 1013572.9289295009 66.1 57 16 32 4671
627676.6006677009 1013558.2442851831 156.6 57 16 36 4671
627654.3904191215 1013565.7694358001 84.1 57 16 40 4671
627671.4853694737 1013556.5800956971 131.7 57 16 44 4671
627685.9117843093 1013570.6705204508 113.9 57 16 48 4671
627673.840688151 1013555.4155474217 67.2 57 16 52 4671
627671.6165163077 1013556.8016817323 39.8 57 16 56 4671
627661.1131385479 1013559.6760235344 69.0 57 17 00 4671
627640.5840715748 1013587.6309433212 64.6 57 17 08 4671
627614.9234888359 1013591.7390679115 67.3 57 17 12 4671
627591.3101602445 1013625.4232025972 85.0 57 17 21 4671
627605.8383389955 1013662.4373873579 83.0 57 17 24 4671
627529.3491603641 1013651.5856559577 112.9 57 17 28 4671
627559.121689272 1013670.591146103 96.4 57 17 32 4671
627580.8253451247 1013738.2373378633 93.8 57 17 36 4671
627603.5046474426 1013769.1627222454 84.3 57 17 40 4671
627609.73352218 1013756.0568689145 114.0 57 17 44 4671
627601.8185852377 1013757.0486451759 100.4 57 17 48 4671
627652.626374426 1013754.61415532 95.0 57 17 52 4671
627683.2609421308 1013755.0559722785 91.8 57 17 56 4671
627724.1177320053 1013764.7975656724 101.8 57 18 00 4671
627715.3000142591 1013752.7267677423 110.1 57 18 08 4671
627715.5533912233 1013752.5285409497 104.5 57 18 12 4671
627714.3449642675 1013755.83100971 96.1 57 18 16 4671
627711.1368499133 1013755.6658233681 106.7 57 18 20 4671
627717.4302279846 1013753.2091544016 102.5 57 18 24 4671
627706.0496947925 1013758.9004610319 127.7 58 06 00 4671
627715.5290546219 1013753.2582977695 103.4 58 06 24 4671
627716.5865752795 1013759.2441566931 108.7 58 06 28 4671
627717.8342363178 1013757.4014858752 100.5 58 06 32 4671
627713.47002727 1013761.3461795101 89.5 58 06 36 4671
627672.9369514697 1013753.4412908922 95.4 58 06 40 4671
627597.7805407057 1013762.0780985198 96.0 58 06 44 4671
627601.5898865175 1013759.8124337974 90.2 58 06 48 4671
627613.3483854342 1013756.1680705361 100.8 58 06 52 4671
627622.6961030915 1013753.8539525657 97.4 58 06 56 4671
627660.1364388206 1013698.695440022 96.0 58 07 00 4671
627735.8476248729 1013695.2467835393 75.4 58 07 08 4671
627747.2802553121 1013700.6358820598 80.4 58 07 12 4671
627744.1823558589 1013717.3567909386 55.1 58 07 16 4671
627782.0593630576 1013734.4866841162 65.4 58 07 20 4671
627798.2639133525 1013735.5785716565 77.8 58 07 24 4671
627824.719957676 1013760.688696252 81.4 58 07 28 4671
627838.5606045827 1013799.5474842306 93.8 58 07 32 4671
627846.426829672 1013833.9747525809 76.7 58 07 36 4671
627881.5299761645 1013869.4964954975 93.0 58 07 40 4671
627902.1721395955 1013888.0746335518 58.0 58 07 44 4671
627907.265732746 1013889.6392665299 61.2 58 07 48 4671
627902.314153242 1013895.1191166982 57.8 58 07 52 4671
627905.1369720233 1013881.9248617328 73.2 58 07 56 4671
627915.6048363249 1013889.9980184503 70.9 58 08 00 4671
627920.4990913287 1013878.4691913229 75.9 58 08 08 4671
627899.6211390345 1013875.0177893038 82.2 58 08 12 4671
627899.2700480112 1013874.8507805155 69.9 58 08 16 4671
627872.5986091013 1013865.3981892153 64.3 58 08 20 4671
627892.5574599855 1013857.4567353815 99.2 58 08 24 4671
627897.4761743426 1013858.7332890882 100.2 58 08 28 4671
627892.1419468857 1013853.4302339564 53.3 58 08 32 4671
627927.1712615263 1013860.8420399281 125.7 58 08 36 4671
627901.3701046557 1013837.1383306108 52.0 58 08 40 4671
627904.2770506925 1013838.6848231724 54.5 58 08 41 4671
627908.8640209723 1013850.7862043872 69.7 58 09 00 4671
627917.7993865985 1013860.4357088923 76.8 58 09 08 4671
627922.1470477862 1013851.4263630519 73.7 58 09 12 4671
627908.8087267904 1013867.8597645974 66.5 58 09 16 4671
627898.5090186268 1013899.4747516651 80.1 58 09 20 4671
627896.3272847055 1013891.1519792484 75.7 58 09 24 4671
627897.1944406733 1013888.0474554163 70.7 58 09 28 4671
627898.2390938713 1013884.4237747076 71.1 58 09 32 4671
627881.0638848298 1013867.5155827873 99.5 58 09 36 4671
627891.5281951192 1013863.1151602527 70.9 58 09 40 4671
627902.4965865731 1013896.4687983112 70.2 58 09 44 4671
627899.8188005794 1013888.6309764876 77.3 58 09 48 4671
627903.2858333412 1013886.8839631799 66.2 58 09 52 4671
627893.6507095741 1013886.3330289932 80.0 58 09 56 4671
627895.925257398 1013893.1411391199 76.7 58 10 00 4671
627903.6122316271 1013884.4964660415 104.7 58 10 08 4671
627898.90704631 1013891.9344020393 82.8 58 10 12 4671
627897.539934382 1013896.7291993063 99.0 58 10 17 4671
627901.4296155523 1013890.0184582182 93.1 58 10 20 4671
627903.514977735 1013887.3823207292 62.7 58 10 24 4671
627903.8577661425 1013886.7199435891 82.4 58 10 28 4671
627904.4957187058 1013896.7074931909 63.6 58 10 32 4671
627909.7808111088 1013893.4292896115 56.4 58 10 36 4671
627909.9239315296 1013862.8098148621 90.8 58 10 40 4671
627865.7348441078 1013864.1485157878 55.3 58 10 44 4671
627872.2326686443 1013859.6357238949 61.3 58 10 48 4671
627869.1579592549 1013862.3902991224 63.2 58 10 49 4671
627877.3938122857 1013891.2454838436 46.4 58 10 52 4671
627902.2676212952 1013895.915150734 61.5 58 10 56 4671
627924.8563022872 1013903.8285200655 73.1 58 11 00 4671
627907.6501923451 1013940.5742196108 73.5 58 11 08 4671
627901.5511029997 1013927.1520230283 87.3 58 11 12 4671
627905.7514816631 1013929.6868784069 85.4 58 11 16 4671
627915.664405375 1013936.0663469961 72.2 58 11 20 4671
627926.7804595409 1013957.7430991507 65.6 58 11 24 4671
627920.189549771 1013960.4641636985 85.2 58 11 28 4671
627880.5976587869 1013919.8742736568 66.3 58 11 33 4671
627900.8688445713 1013893.5220665856 76.7 58 11 36 4671
627908.1298455063 1013887.4746732916 74.2 58 11 40 4671
627901.3129161324 1013898.9088097534 65.9 58 11 44 4671
627900.4122332757 1013895.400468458 91.4 58 11 48 4671
627882.4218852782 1013879.1088901018 96.3 58 11 52 4671
627852.2224965455 1013869.8549937801 85.5 58 11 56 4671
627842.9910738843 1013883.7693991236 91.8 58 12 00 4671
627831.8644665447 1013943.4140512712 80.0 58 12 08 4671
627822.8037618987 1013986.0690622092 83.3 58 12 12 4671
627804.3858614315 1013986.4517758235 89.1 58 12 16 4671
627803.4199214522 1013979.338279702 90.9 58 12 20 4671
627737.6196965494 1014013.7151714533 78.9 58 12 24 4671
627701.8435140658 1014080.9876129649 73.4 58 12 28 4671
627713.6563649814 1014118.2695517628 54.2 58 12 32 4671
627735.5185223664 1014123.1505513301 71.9 58 12 36 4671
627750.3200750866 1014136.689340832 52.9 58 12 40 4671
627767.0291821464 1014114.2401366917 40.4 58 12 44 4671
627781.9969276177 1014154.5180068633 67.1 58 12 48 4671
627792.6751973158 1014206.2050402983 42.6 58 12 52 4671
627825.448707988 1014204.3206725998 59.4 58 12 56 4671
627844.3020523137 1014215.3513725752 36.9 58 13 01 4671
627870.8796554001 1014240.1302291155 54.4 58 13 04 4671
627881.8522924875 1014224.6401655969 51.2 58 13 08 4671
627890.3593979508 1014213.8197034518 61.0 58 13 12 4671
627894.1343533931 1014215.3800689168 68.0 58 13 16 4671
627887.8003776317 1014199.8560635847 64.9 58 13 20 4671
627884.6650336075 1014197.5900508739 63.5 58 13 25 4671
627886.6116086204 1014197.0876823881 86.1 58 13 28 4671
627881.699098139 1014193.9091475299 67.9 58 13 32 4671
627910.0196826265 1014253.8916839424 70.1 58 13 36 4671
627932.7427184975 1014264.3599477238 70.3 58 13 40 4671
627965.3935828516 1014300.305151998 70.9 58 13 44 4671
627957.3739872496 1014289.5417178381 59.6 58 13 48 4671
627982.1707294992 1014314.5139397108 71.8 58 13 52 4671
627984.0904838757 1014308.7257051385 87.7 58 13 56 4671
627971.421815859 1014291.4892499971 75.3 58 14 00 4671
627988.5428455167 1014308.0877102531 90.1 58 14 08 4671
627978.5155288957 1014316.6915990292 93.8 58 14 12 4671
628035.6597597494 1014315.2513477221 89.9 58 14 16 4671
628058.2875462504 1014327.9641841705 101.7 58 14 20 4671
628068.4808522721 1014352.8780433984 61.5 58 14 24 4671
628054.1297025076 1014366.5325097998 33.9 58 14 28 4671
628075.9974409122 1014369.6444386878 66.3 58 14 32 4671
628079.981394061 1014367.7443081867 51.6 58 14 36 4671
628104.555771591 1014359.6189158277 102.3 58 14 40 4671
628087.2801303831 1014336.5066552502 63.8 58 14 44 4671
628075.4587324021 1014322.313894355 72.7 58 14 48 4671
628064.6997910044 1014312.5588946801 66.6 58 14 52 4671
628058.9310000727 1014295.5880690598 48.7 58 14 56 4671
628076.102687387 1014296.5615991454 71.2 58 15 00 4671
628084.752574269 1014272.2286019971 60.6 58 15 08 4671
628099.3777644194 1014262.1799813085 66.8 58 15 12 4671
628098.1156994668 1014251.5269067668 60.0 58 15 16 4671
628095.7191755328 1014238.3046653813 53.2 58 15 20 4671
628117.573083387 1014238.9284840474 65.3 58 15 24 4671
628119.7136399021 1014253.1451288388 68.1 58 15 28 4671
628140.7087264176 1014250.9131763512 104.3 58 15 33 4671
628138.7185258889 1014234.3858679626 62.6 58 15 36 4671
628126.3585966005 1014213.4458862965 56.9 58 15 40 4671
628127.9627513794 1014199.9491140938 77.2 58 15 44 4671
628100.4563612136 1014204.0730064003 60.0 58 15 48 4671
628104.3651514528 1014181.316998803 56.2 58 15 52 4671
628091.2744137323 1014179.0186685469 60.4 58 15 56 4671
628079.6666904609 1014163.3005847803 96.9 58 16 00 4671
628105.1986035968 1014246.1756375183 72.4 58 16 08 4671
628137.4164498964 1014276.6900539869 57.2 58 16 12 4671
628155.6177592108 1014261.7543070733 60.1 58 16 16 4671
628161.1929822336 1014260.4896620468 65.0 58 16 20 4671
628148.9049310214 1014241.1091004214 66.6 58 16 24 4671
628143.6645369644 1014227.2362517436 50.1 58 16 28 4671
628128.1412622292 1014219.434120495 57.1 58 16 32 4671
628126.4419152439 1014184.3853883381 60.5 58 16 36 4671
628109.043278933 1014161.9030427991 62.8 58 16 40 4671
628081.0572205762 1014144.517334126 64.9 58 16 44 4671
628054.9983036844 1014146.168937046 56.1 58 16 48 4671
628007.8245935729 1014139.5137922534 75.6 58 16 52 4671
627972.1616283593 1014137.8279351897 39.2 58 16 56 4671
627957.4890495528 1014128.591081185 85.3 58 17 00 4671
627918.4286121319 1014127.5356353192 76.3 58 17 05 4671
627886.6229475384 1014118.9510277713 86.3 58 17 08 4671
627870.7634805072 1014099.570068163 69.7 58 17 12 4671
627820.9529790279 1014096.1577060375 79.1 58 17 16 4671
627809.3681800901 1014080.1080499052 68.3 58 17 20 4671
627779.3986769503 1014050.795509202 102.2 58 17 25 4671
627781.3285258366 1014031.6933266384 79.8 58 17 28 4671
627788.8101010493 1014015.1967089396 81.8 58 17 32 4671
627782.881392396 1013996.6551767829 87.0 58 17 36 4671
627782.2667864412 1013986.2364413342 100.3 58 17 40 4671
627807.6595959 1013973.1262801985 102.3 58 17 44 4671
627827.4306457348 1013941.707807458 89.3 58 17 48 4671
627902.7143902808 1013893.6828571166 65.5 58 17 52 4671
627896.8508340376 1013885.5693235785 76.8 58 17 56 4671
627876.3313358477 1013859.6489941978 73.9 58 18 00 4671
627879.5082881874 1013798.1650748128 88.6 58 18 08 4671
627884.0580981203 1013794.5969748436 93.6 58 18 12 4671
627883.3378759575 1013793.0465061507 89.8 58 18 16 4671
627880.5276732178 1013792.1638161155 80.5 59 06 20 4671
627876.374522352 1013792.0066143252 89.0 59 06 24 4671
627873.1211989402 1013799.0179876602 92.4 59 06 28 4671
627869.4302060811 1013798.6632365913 71.5 59 06 32 4671
627884.7238371735 1013802.7931973324 59.6 59 06 36 4671
627889.0364310899 1013814.794163256 56.1 59 06 40 4671
627888.3126100271 1013831.3237095079 51.7 59 06 44 4671
627904.7518832746 1013878.6835850677 56.4 59 06 48 4671
627900.5579225149 1013887.7376622915 77.4 59 06 52 4671
627905.8474503346 1013886.4831086576 74.2 59 06 56 4671
627904.7875523875 1013888.0278130722 55.6 59 07 00 4671
627886.8285602519 1013868.8391069279 49.2 59 07 08 4671
627857.0406711039 1013864.850205158 67.5 59 07 12 4671
627845.6879219773 1013844.9862472443 35.8 59 07 16 4671
627825.7988692072 1013841.5491465162 74.3 59 07 20 4671
627815.8226662164 1013841.1298264114 90.8 59 07 24 4671
627827.2224813828 1013815.8989197405 77.7 59 07 28 4671
627833.9185652826 1013814.6378496405 86.2 59 07 32 4671
627829.8526456963 1013818.0858813259 92.7 59 07 36 4671
627784.952139263 1013818.5377268068 95.1 59 07 40 4671
627762.3884352841 1013806.2786889264 99.2 59 07 44 4671
627738.5364401644 1013811.8190643039 110.9 59 07 48 4671
627726.4950141935 1013773.8286741588 120.0 59 07 52 4671
627668.2317764766 1013771.0858878307 99.0 59 07 57 4671
627637.7261165576 1013764.7615824204 92.1 59 08 00 4671
627611.2042852446 1013773.5887250033 90.2 59 08 08 4671
627590.1098242194 1013769.108393569 89.2 59 08 12 4671
627606.2159599541 1013770.0450720936 94.2 59 08 16 4671
627647.0400830244 1013762.6906396614 142.5 59 08 20 4671
627640.639062428 1013788.2584236851 114.2 59 08 24 4671
627653.730265673 1013776.8555853183 125.7 59 08 28 4671
627641.5620337322 1013764.4754090501 91.7 59 08 32 4671
627660.025780175 1013773.735428265 119.9 59 08 36 4671
627688.874834136 1013789.4316766277 101.3 59 08 40 4671
627712.5249853376 1013812.3320868468 113.6 59 08 44 4671
627696.3067931941 1013839.2614461447 107.2 59 08 48 4671
627702.5624841303 1013862.0503285851 127.0 59 08 52 4671
627699.7163626114 1013885.8713615243 133.2 59 08 56 4671
627677.775313519 1013905.3511680762 98.1 59 09 00 4671
627633.4428068177 1013896.6931250554 122.4 59 09 08 4671
627620.4950616744 1013880.7165453624 126.0 59 09 12 4671
627578.5814812386 1013885.2034197159 142.5 59 09 16 4671
627592.990512623 1013860.4245109174 82.0 59 09 20 4671
627610.3687102671 1013834.9474794293 39.4 59 09 24 4671
627575.8681609499 1013823.7115670599 44.0 59 09 28 4671
627522.7616987384 1013867.6619151334 76.4 59 09 32 4671
627526.7051028232 1013837.4860143083 84.7 59 09 36 4671
627548.0281012617 1013784.7966349504 98.1 59 09 40 4671
627548.6122625642 1013811.4706779247 97.3 59 09 44 4671
627503.1599011282 1013836.5142909585 89.8 59 09 48 4671
627472.9726508418 1013894.9695204706 75.7 59 09 52 4671
627454.120276689 1013955.0647689886 68.9 59 09 56 4671
627453.2905605264 1014007.8645457077 49.9 59 10 00 4671
627533.1156269185 1014094.773606019 73.2 59 10 08 4671
627558.4228696334 1014087.6896971033 67.7 59 10 12 4671
627571.1661088163 1014085.3201975413 69.9 59 10 16 4671
627640.8068554366 1014038.9353066407 84.4 59 10 20 4671
627656.5413163169 1014039.2405061849 90.0 59 10 24 4671
627711.5356324262 1014036.7201490258 85.3 59 10 28 4671
627751.974101409 1014005.8439955798 98.9 59 10 32 4671
627798.471219588 1013966.9592885962 96.6 59 10 36 4671
627844.1072184661 1013939.5280494547 95.0 59 10 40 4671
627911.4878838629 1013888.8456979264 77.0 59 10 44 4671
627914.460863232 1013890.3592313174 73.1 59 10 48 4671
627908.748967529 1013879.525889112 75.3 59 10 52 4671
627913.7002499588 1013880.924190086 90.0 59 10 56 4671
627908.2331754707 1013889.4986441658 71.5 59 11 00 4671
627898.5886698968 1013891.8449060288 83.1 59 11 08 4671
627866.3680914073 1013862.0163488169 45.6 59 11 12 4671
627893.6538135646 1013868.407825139 87.8 59 11 16 4671
627905.0043863879 1013844.8244357747 53.3 59 11 24 4671
627897.6359041147 1013843.3409021182 46.9 59 11 28 4671
627892.8596538458 1013886.2972929716 68.5 59 12 00 4671
627901.2249961536 1013885.3402102982 74.7 59 12 08 4671
627911.7847914867 1013885.3854674876 69.9 59 12 12 4671
627909.2431876465 1013882.9997398516 69.0 59 12 16 4671
627891.4574480728 1013878.1760916081 56.8 59 12 20 4671
627912.3198488601 1013889.8215071606 58.5 59 12 24 4671
627893.0743105559 1013881.0896131591 67.2 59 12 28 4671
627876.438885966 1013867.1578060071 72.2 59 12 32 4671
627898.726164523 1013859.5666960164 63.6 59 12 36 4671
627900.9051801332 1013844.9770327627 56.6 59 12 40 4671
627896.8383008953 1013865.6867815065 61.7 59 12 48 4671
627900.0463618524 1013848.8998845525 50.9 59 12 52 4671
627902.865645181 1013853.7635295562 70.6 59 13 00 4671
627894.4149389087 1013898.0460538986 72.7 59 13 20 4671
627898.4213017108 1013892.6294906177 75.9 59 13 24 4671
627900.6138972983 1013890.8120012499 71.5 59 13 28 4671
627902.7121515416 1013884.1949818378 68.7 59 13 32 4671
627902.0050446434 1013875.2024393614 70.8 59 13 36 4671
627899.0064647809 1013878.2005376059 92.4 59 13 40 4671
627895.3687382011 1013878.3656873023 78.8 59 13 44 4671
627888.3343402895 1013885.6965586529 75.1 59 13 48 4671
627858.6127126095 1013888.3980309605 62.0 59 13 52 4671
627835.2353922273 1013893.276393183 70.8 59 13 56 4671
627824.7980484009 1013892.7449952969 75.6 59 14 00 4671
627847.7126628518 1013918.7836308929 93.8 59 14 08 4671
627839.9560946026 1013911.592860647 91.3 59 14 12 4671
627850.1186544403 1013908.750647214 74.4 59 14 16 4671
627864.1288174503 1013918.9805327537 89.3 59 14 20 4671
627861.3946140883 1013914.9907572907 95.6 59 14 24 4671
627861.627267275 1013914.4054301655 89.5 59 14 28 4671
627868.1291621848 1013912.0268689654 90.2 59 14 32 4671
627866.2742072375 1013907.9846493525 92.3 59 14 36 4671
627864.604930372 1013921.2600469731 101.5 59 14 40 4671
627862.8103009138 1013942.706989509 96.6 59 14 44 4671
627842.1895125341 1013951.4756685516 100.8 59 14 48 4671
627836.720171659 1013960.757841887 83.7 59 14 52 4671
627823.4805995496 1013946.7043499537 78.5 59 14 56 4671
627845.2557011457 1013934.3786836825 108.3 59 15 00 4671
627814.2601058045 1013923.2976448307 89.7 59 15 08 4671
627801.9019204766 1013925.5024486646 102.1 59 15 12 4671
627790.3933378953 1013953.7961045293 93.2 59 15 16 4671
627771.5265495402 1013929.893758215 92.8 59 15 20 4671
627775.9153343135 1013897.9721162415 96.7 59 15 24 4671
627776.0071308275 1013889.9773948413 94.9 59 15 28 4671
627754.0544030829 1013889.2760641814 101.1 59 15 32 4671
627746.1450518843 1013898.7383433172 118.9 59 15 36 4671
627740.912962924 1013892.4293522683 106.3 59 15 40 4671
627717.8779923801 1013910.3795806423 107.3 59 15 44 4671
627720.5053347971 1013865.8681075404 118.8 59 15 48 4671
