627628.5528414926 1012981.6077542441 115.4 58 14 52 4689
627637.5055316756 1012982.576599386 126.8 58 14 56 4689
627634.834797257 1012982.7227894993 116.0 58 15 00 4689
627633.7232329051 1012983.2499895992 113.7 58 15 08 4689
627627.259604176 1012983.9478973885 91.5 58 15 12 4689
627638.992914293 1012984.7709071118 122.3 58 15 16 4689
627641.4415015638 1012978.5530993692 141.2 58 15 20 4689
627635.3360689387 1012980.623367768 110.1 58 15 24 4689
627639.0984887679 1012982.7033820512 112.2 58 15 28 4689
627640.5744803586 1012974.8126597324 96.2 58 15 32 4689
627625.8682623719 1012982.6385487645 117.6 58 15 36 4689
627621.3582089464 1012987.489554618 114.4 58 15 40 4689
627594.320107001 1012989.2932077949 111.4 58 15 44 4689
627590.6061331814 1012989.2259294619 113.9 58 15 48 4689
627567.4116224942 1012995.1998540825 115.6 58 15 52 4689
627563.7667882128 1013000.9493640728 112.7 58 15 56 4689
627562.4588487012 1013014.6571923502 114.9 58 16 00 4689
627546.3004600251 1013005.9797304731 123.5 58 16 08 4689
627547.493188546 1013004.1368757118 126.1 58 16 12 4689
627540.5803170876 1013011.2470474013 115.9 58 16 16 4689
627500.9774384733 1013045.1671839493 117.6 58 16 20 4689
627470.4764906585 1013074.6824058109 114.4 58 16 24 4689
627472.1206338473 1013045.3063333747 102.5 58 16 28 4689
627445.4728591111 1013028.3125710689 115.9 58 16 32 4689
627422.9621148482 1013084.6694801679 128.3 58 16 36 4689
627422.0171588933 1013094.8730597086 115.3 58 16 40 4689
627384.9286212999 1013091.9889869454 133.4 58 16 44 4689
627379.2755106394 1013038.9582471426 143.5 58 16 48 4689
627364.1157526505 1012982.9443683622 147.2 58 16 52 4689
627352.1701410394 1013007.0899388856 145.3 58 16 56 4689
627278.5739217498 1013070.005675094 139.0 58 17 00 4689
627287.4479745936 1013139.744480854 124.6 58 17 08 4689
627281.0123743941 1013131.7508690256 127.8 58 17 12 4689
627277.4905998665 1013130.01446511 130.6 58 17 16 4689
627286.7559911561 1013129.4139916332 127.8 58 17 20 4689
627288.4514910753 1013131.8190586021 127.1 58 17 24 4689
627283.857487056 1013132.0475418279 123.2 58 17 28 4689
627290.8385937499 1013134.4364568479 122.7 58 17 32 4689
627285.3188796233 1013135.4913156533 133.7 58 17 36 4689
627273.6706738226 1013128.730483329 133.1 58 17 40 4689
627245.3803604962 1013092.8775206935 141.7 58 17 44 4689
627247.4604052198 1013091.8889886697 116.8 58 17 48 4689
627238.1068738615 1013095.9724879401 118.3 58 17 52 4689
627245.3305925607 1013108.3365748643 115.3 58 17 56 4689
627232.0053680274 1013130.9738269089 136.3 58 18 00 4689
627278.7384941484 1013080.3234070303 141.7 59 06 08 4689
627276.7549593777 1013082.0531406668 146.2 59 06 12 4689
627284.6273877197 1013094.297685782 152.0 59 06 16 4689
627284.8262297421 1013090.56069013 132.4 59 06 20 4689
627283.0539163653 1013071.0595621687 122.5 59 06 24 4689
627276.0160604797 1013072.6403231721 144.5 59 06 28 4689
627273.5514847531 1013073.6054995385 156.7 59 06 32 4689
627272.2005081333 1013069.9962107989 140.5 59 06 36 4689
627268.9900301988 1013087.6124752718 133.3 59 06 40 4689
627264.9723896635 1013082.8887911016 138.3 59 06 44 4689
627266.7613337964 1013080.163201945 144.0 59 06 48 4689
627264.0624416106 1013071.9936388814 145.4 59 06 52 4689
627265.80948371 1013072.043496281 140.9 59 06 56 4689
627259.2862410704 1013074.2009379592 138.0 59 07 00 4689
627250.4857643701 1013077.158290066 123.8 59 07 08 4689
627249.049523864 1013079.5532725106 124.3 59 07 12 4689
627223.8992945672 1013105.9675022926 125.1 59 07 16 4689
627223.2939363222 1013102.8582297681 121.9 59 07 20 4689
627217.9040340785 1013125.0344725568 125.2 59 07 24 4689
627179.154376527 1013160.2956587735 135.2 59 07 28 4689
627163.6262611157 1013187.9683281125 128.7 59 07 32 4689
627204.216508162 1013260.2419457058 111.3 59 07 36 4689
627193.4970021991 1013350.7400469343 90.2 59 07 40 4689
627204.09552062 1013355.8608861207 100.0 59 07 44 4689
627198.4382159477 1013368.9465152678 88.8 59 07 48 4689
627229.4403051037 1013391.8370560497 98.7 59 07 52 4689
627229.366915425 1013380.5022730811 95.1 59 07 56 4689
627231.414629216 1013386.1374364728 96.0 59 08 00 4689
627228.480665904 1013386.1390475814 98.4 59 08 08 4689
627215.3936541223 1013396.2482418739 96.7 59 08 12 4689
627214.376411614 1013398.202249446 99.0 59 08 16 4689
627214.6088075553 1013397.6943253326 98.6 59 08 20 4689
627212.7105279475 1013400.2536915843 97.8 59 08 24 4689
627209.9191670127 1013400.333169698 97.7 59 08 28 4689
627230.6438088398 1013427.5917506659 98.6 59 08 32 4689
627222.1432680981 1013429.5658947063 93.6 59 08 36 4689
627226.9159718791 1013428.4312203926 80.9 59 08 40 4689
627219.2806469253 1013438.1267007153 96.7 59 08 44 4689
627209.1716725593 1013448.2012512658 93.5 59 08 48 4689
627190.2713855503 1013482.3099138936 96.2 59 08 52 4689
627157.0636049171 1013482.4020717338 90.6 59 08 56 4689
627174.4057702658 1013474.8941529833 84.9 59 09 00 4689
627168.7778602164 1013475.4400012553 95.0 59 09 08 4689
627175.4471670862 1013468.848728201 71.0 59 09 12 4689
627177.2892945481 1013476.9049492656 103.3 59 09 16 4689
627177.2991540111 1013473.841889255 114.0 59 09 20 4689
627168.9765331016 1013478.5811390223 119.2 59 09 24 4689
627179.7958442176 1013486.7878946239 113.0 59 09 28 4689
627180.5392162706 1013464.0880224318 51.1 59 09 32 4689
627179.194641713 1013475.5619949573 93.6 59 09 36 4689
627176.9537320025 1013478.7395125771 95.5 59 09 40 4689
627177.3121311172 1013486.8794226452 93.7 59 09 44 4689
627193.3551235369 1013524.5285846896 89.7 59 09 48 4689
627207.8371447108 1013528.2243817899 89.9 59 09 52 4689
627214.0152901937 1013527.4259754923 96.8 59 09 56 4689
627213.1922462566 1013530.4974756405 91.7 59 10 00 4689
627209.0656216957 1013525.5080460085 91.7 59 10 08 4689
627223.7432801544 1013550.3475566647 99.0 59 10 12 4689
627224.8219135186 1013553.2150767681 98.8 59 10 16 4689
627221.2562086744 1013554.8954828826 100.4 59 10 20 4689
627218.3300417024 1013555.8923467894 92.6 59 10 24 4689
627220.357185789 1013554.262276451 94.0 59 10 28 4689
627216.2897728868 1013558.1858606366 95.3 59 10 32 4689
627222.6925970981 1013555.8621626294 98.2 59 10 36 4689
627218.7754403875 1013557.4861466953 95.0 59 10 40 4689
627222.4714750317 1013556.2816581749 98.0 59 10 44 4689
627231.5371070004 1013535.7870278138 88.5 59 10 48 4689
627240.8562401481 1013535.529529724 91.0 59 10 52 4689
627234.3062480461 1013532.3679360934 102.2 59 10 56 4689
627242.4070689899 1013528.2582975026 96.8 59 11 00 4689
627259.744516731 1013518.8041763944 90.3 59 11 08 4689
627254.627973079 1013514.110121477 94.9 59 11 12 4689
627253.0991356786 1013517.9644727226 86.2 59 11 16 4689
627257.417190253 1013521.5169716484 89.1 59 11 20 4689
627247.7058356025 1013524.1396355013 95.8 59 11 24 4689
627249.5734100423 1013524.2894058134 90.3 59 11 28 4689
627228.4915814667 1013539.7249600944 80.4 59 11 32 4689
627228.86714736 1013539.1179743098 87.7 59 11 36 4689
627230.2883966384 1013537.961451244 88.6 59 11 40 4689
627229.4441580403 1013540.7896048548 90.7 59 11 44 4689
627229.4194391184 1013541.64099858 89.5 59 11 48 4689
627229.6758057645 1013540.5138984649 90.6 59 11 52 4689
627231.8182377227 1013547.4431655786 84.9 59 11 56 4689
627227.6000008003 1013536.7806356234 83.9 59 12 00 4689
627227.9160663506 1013537.5888943927 95.9 59 12 08 4689
627228.6723972574 1013534.7604576681 85.4 59 12 12 4689
627221.7614655441 1013537.9008179976 88.2 59 12 16 4689
627166.2999236047 1013559.0864977783 84.7 59 12 20 4689
627085.0260389573 1013549.6246444182 111.8 59 12 24 4689
627085.0972122306 1013530.914585045 111.9 59 12 28 4689
627088.7365462179 1013543.9195476752 114.6 59 12 32 4689
627089.7407988404 1013542.5847492613 118.4 59 12 36 4689
627096.615901358 1013543.7458492081 110.0 59 12 40 4689
627097.6279371766 1013546.823254106 112.7 59 12 44 4689
627091.5800988775 1013544.6917031705 114.9 59 12 48 4689
627088.1791204542 1013546.4058248334 113.2 59 12 52 4689
627084.4897066979 1013545.5535420486 109.8 59 12 56 4689
627084.8372818796 1013546.8152823627 111.6 59 13 00 4689
627076.4961531681 1013564.1496531647 105.6 59 13 08 4689
627080.055345277 1013557.6589447976 102.4 59 13 12 4689
627094.075086182 1013571.8362832811 97.4 59 13 16 4689
627114.4973905593 1013617.9147060271 79.3 59 13 20 4689
627108.7891792421 1013612.6879781358 63.5 59 13 24 4689
627113.6055012237 1013625.3096994178 69.6 59 13 28 4689
627111.007157329 1013620.0487453907 73.4 59 13 32 4689
627118.7031130337 1013635.886579936 110.0 59 13 36 4689
627087.3186614319 1013632.8441494149 100.2 59 13 40 4689
627080.8753245722 1013630.6892098979 95.6 59 13 44 4689
627073.3177048094 1013636.7468481648 92.5 59 13 48 4689
627053.7360479065 1013667.5248760647 105.1 59 13 52 4689
627019.4934389766 1013692.1848738391 108.6 59 13 56 4689
627013.7714332892 1013691.2486536157 101.7 59 14 00 4689
626990.3581067119 1013662.9089062285 115.4 59 14 08 4689
626952.5355298929 1013639.0013931891 121.0 59 14 12 4689
626933.6699414676 1013621.3694726788 122.8 59 14 16 4689
626874.4776075489 1013627.3165601857 99.6 59 14 20 4689
626883.2321060065 1013628.3620212523 114.7 59 14 24 4689
626882.4420629442 1013624.5886773362 109.5 59 14 28 4689
626879.6328429597 1013626.8133874513 114.8 59 14 32 4689
626875.9627126236 1013626.8015999555 106.2 59 14 36 4689
626883.0872321642 1013628.9918666842 106.8 59 14 40 4689
626870.8322241886 1013626.4423221753 103.0 59 14 44 4689
626861.8030859922 1013625.3738658271 89.3 59 14 48 4689
626877.8343087346 1013629.1187503623 107.5 59 14 52 4689
626866.1023902701 1013655.29978646 113.8 59 14 56 4689
626864.8404019871 1013665.0379045515 98.1 59 15 00 4689
626755.8489290245 1013643.3680490473 88.7 59 15 08 4689
626754.4232777364 1013652.7517835217 103.5 59 15 12 4689
626735.9650073248 1013634.8669387954 96.6 59 15 16 4689
626737.9640814528 1013635.1276880227 98.0 59 15 20 4689
626734.5042142187 1013638.0801530636 97.0 59 15 24 4689
626726.5117931011 1013632.4038352582 73.7 59 15 28 4689
626745.6179062277 1013619.6156437816 83.0 59 15 32 4689
626720.6741806092 1013585.2887572902 89.7 59 15 36 4689
626708.5897912805 1013584.3542926909 103.8 59 15 40 4689
626703.9352349339 1013586.3519342782 103.9 59 15 44 4689
626709.420200383 1013582.399676478 102.4 59 15 48 4689
626704.6292250451 1013575.5393610421 99.6 59 15 52 4689
626697.1658721447 1013562.5000694697 104.4 59 15 56 4689
626694.1069006093 1013567.2231162195 105.6 59 16 00 4689
626689.4141385038 1013564.001225231 107.6 59 16 08 4689
626682.8064669733 1013575.3919708014 100.0 59 16 12 4689
626680.9523630686 1013577.8962086199 91.1 59 16 16 4689
626670.8925062016 1013569.2828854206 105.8 59 16 20 4689
626644.4987061826 1013558.7926192913 95.1 59 16 24 4689
626633.8792456065 1013567.0631924557 89.4 59 16 28 4689
626615.2234648208 1013579.9192279553 89.4 59 16 32 4689
626616.6201202606 1013565.8578346549 90.8 59 16 36 4689
626622.9585053446 1013607.6223779611 81.8 59 16 40 4689
626648.8648976613 1013667.3084467587 94.2 59 16 44 4689
626666.8451969738 1013710.8906840257 102.0 59 16 48 4689
626701.4552082516 1013742.8931773059 81.2 59 16 52 4689
626687.418046371 1013785.5212731224 79.9 59 16 56 4689
626659.0712514729 1013846.1170862173 76.2 59 17 00 4689
626665.1783106911 1013898.2976203738 46.0 59 17 08 4689
626714.0623016835 1013926.818405229 65.2 59 17 12 4689
626719.4622008507 1013963.0619992042 77.7 59 17 16 4689
626716.4750487172 1013972.8056400472 67.3 59 17 20 4689
626722.9135728811 1013979.870296995 60.5 59 17 24 4689
626732.1994892979 1014013.8926341548 67.7 59 17 28 4689
626743.031314294 1014018.1737011218 69.1 59 17 32 4689
626739.3728845249 1014017.9518557152 71.4 59 17 36 4689
626740.98582231 1014018.6868657718 63.2 59 17 40 4689
626739.915854049 1014016.5381640836 55.9 59 17 44 4689
626716.0633644782 1014029.1894662711 77.4 59 17 48 4689
626709.1767556322 1014038.4893291031 73.6 59 17 52 4689
626707.7789375447 1014049.4765747578 77.4 59 17 56 4689
626711.3196271858 1014045.2969241097 76.0 59 18 00 4689
626770.0634622648 1014110.3853514475 103.1 60 06 08 4689
626790.9711040544 1014097.7135711021 48.9 60 06 12 4689
626782.119147702 1014099.6756027876 76.4 60 06 16 4689
626787.3054901981 1014103.1534354832 60.7 60 06 20 4689
626786.8094741781 1014100.2103928287 54.8 60 06 24 4689
626785.2226526663 1014101.6096741178 60.9 60 06 28 4689
626815.203181433 1014124.2533832097 80.1 60 06 32 4689
626860.1790309008 1014120.7155178686 77.9 60 06 36 4689
626864.292366944 1014116.150686392 78.3 60 06 40 4689
626873.9615451479 1014126.5984711732 76.1 60 06 44 4689
626876.2295003165 1014125.2456141848 69.9 60 06 48 4689
626872.0405427072 1014136.2460074223 75.0 60 06 52 4689
626882.1719946243 1014143.035054088 64.5 60 06 56 4689
626883.5796382476 1014146.1026674814 61.7 60 07 00 4689
626884.777801458 1014152.8077181706 70.2 60 07 08 4689
626910.1977556072 1014175.5474370332 61.1 60 07 12 4689
626920.06580945 1014226.6675233213 57.9 60 07 16 4689
626934.5708410513 1014240.2160820339 66.5 60 07 20 4689
626937.4733063565 1014246.5727569314 70.8 60 07 24 4689
626930.1972349831 1014240.2904851761 71.0 60 07 28 4689
626930.5309023986 1014242.4589432701 53.6 60 07 32 4689
626927.5563203018 1014238.0261445934 56.8 60 07 36 4689
626934.1100102506 1014240.0044967127 55.0 60 07 40 4689
626933.4966618882 1014242.8002211237 62.5 60 07 44 4689
626933.5290577756 1014242.977254698 60.2 60 07 48 4689
626932.5506418212 1014243.1178641224 60.8 60 07 52 4689
626932.7055082725 1014242.7976774675 65.9 60 07 56 4689
626933.7393632005 1014242.5024330497 63.6 60 08 00 4689
626934.9001707347 1014243.7336130608 63.6 60 08 08 4689
626932.3628461935 1014243.4268868181 54.3 60 08 12 4689
626940.4223867327 1014245.2663264883 79.4 60 08 16 4689
626935.3229526132 1014245.5263827402 67.5 60 08 20 4689
626935.6588573531 1014243.5812391345 66.8 60 08 24 4689
626932.3791673167 1014241.7682260127 61.4 60 08 28 4689
626932.7712599757 1014242.8531793096 63.6 60 08 32 4689
626947.7496600364 1014242.4590158635 71.1 60 08 36 4689
626934.9509143856 1014241.6216812832 68.5 60 08 40 4689
626935.2920477287 1014241.4679648441 65.4 60 08 44 4689
626933.863255891 1014241.5628938527 67.8 60 08 48 4689
626930.4262816423 1014240.822009817 64.7 60 08 52 4689
626932.5828599492 1014243.3501875666 69.5 60 08 56 4689
626930.7774485685 1014247.8007926708 68.0 60 09 00 4689
626927.3552611868 1014239.0428423217 70.9 60 09 08 4689
626931.7739961429 1014242.0206163664 75.3 60 09 12 4689
626935.8608388372 1014238.8600846912 63.7 60 09 16 4689
626931.0425884973 1014247.3593215775 60.0 60 09 20 4689
626927.9900255067 1014246.6749640519 70.5 60 09 24 4689
626932.5002513279 1014241.702266779 64.8 60 09 28 4689
626936.803414581 1014246.4489640943 72.4 60 09 32 4689
626942.0969680282 1014233.6607175291 64.6 60 09 36 4689
626935.0219325096 1014246.8745017201 83.0 60 09 40 4689
626932.6868786385 1014248.5920559769 72.5 60 09 44 4689
626937.3964637446 1014253.384292535 82.3 60 09 48 4689
626927.2700570965 1014238.2021536806 67.4 60 09 52 4689
626925.0491461388 1014197.5786558955 61.0 60 09 56 4689
626977.6106439871 1014189.4651548765 68.8 60 10 00 4689
626981.5664323391 1014127.972781663 77.8 60 10 08 4689
626985.7255925167 1014074.9957921107 78.9 60 10 12 4689
626989.3259866273 1014038.5930820608 91.3 60 10 16 4689
626974.213119191 1014029.5210831625 87.1 60 10 20 4689
626988.1063911701 1014021.4712377284 88.1 60 10 24 4689
627031.3119217501 1013987.6065728427 78.4 60 10 28 4689
627033.3818909461 1013982.9024849152 86.7 60 10 32 4689
627026.5896780805 1013945.7475688434 93.5 60 10 36 4689
626986.5834026125 1013927.8375009479 98.0 60 10 40 4689
626978.9321693828 1013911.7676132135 112.0 60 10 44 4689
626978.307378963 1013883.9434544018 112.9 60 10 48 4689
626987.407683365 1013879.9475697341 119.8 60 10 52 4689
626986.2592794874 1013885.1080045499 118.2 60 10 56 4689
626985.4830890379 1013883.8670029587 117.9 60 11 00 4689
627041.6102391451 1013898.1244571527 113.1 60 11 08 4689
627043.4895337903 1013894.6250877322 109.5 60 11 12 4689
627031.7668922774 1013890.5732934314 109.9 60 11 16 4689
627035.0686560133 1013837.7041269701 114.0 60 11 20 4689
627033.800553626 1013828.8314602148 114.1 60 11 24 4689
627033.7431205686 1013833.0222915354 117.3 60 11 28 4689
627038.5001190394 1013836.7531102373 121.9 60 11 32 4689
627035.0882871082 1013835.0170742646 110.8 60 11 36 4689
627040.0671865216 1013838.0851215235 113.3 60 11 40 4689
627031.888151621 1013828.958006408 110.2 60 11 44 4689
627024.0334300116 1013818.0737003026 94.7 60 11 48 4689
627042.5648973961 1013823.385895667 122.4 60 11 52 4689
627036.5620079947 1013834.6237231144 114.6 60 11 56 4689
627026.1245955635 1013827.2807561336 99.6 60 12 00 4689
627035.2170904726 1013832.5515344996 121.1 60 12 08 4689
627022.2065146659 1013829.2033208839 86.4 60 12 12 4689
627037.1474835785 1013837.0805022325 115.8 60 12 16 4689
627033.6679479349 1013825.6463038471 131.0 60 12 20 4689
627034.8944834634 1013826.9440453127 114.8 60 12 24 4689
627036.1745699652 1013835.5071241459 109.7 60 12 28 4689
627029.6464531479 1013832.3898624112 114.0 60 12 32 4689
627044.8892931635 1013845.4874365589 106.4 60 12 36 4689
627037.7255294881 1013835.0144986622 113.8 60 12 40 4689
627030.6040411046 1013831.8953282215 97.2 60 12 45 4689
627027.2322152957 1013827.969919961 110.8 60 12 48 4689
627032.9505729589 1013830.0340581865 110.9 60 12 52 4689
627035.4277881805 1013835.3720251109 106.8 60 12 56 4689
627031.422406649 1013833.6893708517 99.0 60 13 00 4689
627025.8147536825 1013821.1204037854 82.8 60 13 08 4689
627032.8809407757 1013838.0177750728 113.1 60 13 13 4689
627029.2250490729 1013847.2505796534 103.4 60 13 16 4689
627031.4254268033 1013839.5833424162 105.1 60 13 20 4689
627034.9089895266 1013832.6832406082 118.0 60 13 24 4689
627033.2501348101 1013839.3901656712 113.2 60 13 28 4689
627036.9860370583 1013836.029464401 117.8 60 13 32 4689
627037.6278474154 1013827.8043098128 81.8 60 13 36 4689
627042.17083399 1013839.9938795257 96.2 60 13 40 4689
627088.5695981523 1013821.2338154182 102.8 60 13 44 4689
627106.6881787 1013818.2622024077 99.7 60 13 48 4689
627101.0894693179 1013823.4083143725 97.4 60 13 52 4689
627098.5989459263 1013825.6229764023 99.4 60 13 56 4689
627094.7965797277 1013825.7323797075 104.0 60 14 00 4689
627098.7058476661 1013823.1352496848 102.4 60 14 08 4689
627100.7249672094 1013823.9932202834 114.0 60 14 12 4689
627098.8284633313 1013822.5937977444 105.9 60 14 16 4689
627101.2227175336 1013822.9774775732 105.3 60 14 20 4689
627101.6494134393 1013823.5538714881 107.6 60 14 24 4689
627099.1040265348 1013822.3292902869 99.7 60 14 28 4689
627097.9854548478 1013821.6290309731 101.4 60 14 32 4689
627096.2710204271 1013821.7009207093 94.3 60 14 36 4689
627099.7497781358 1013823.1275509344 104.7 60 14 40 4689
627103.6522346782 1013829.4763960718 107.5 60 14 44 4689
627100.6825083008 1013823.5286437788 104.2 60 14 48 4689
627101.4870077078 1013822.8013985913 101.5 60 14 52 4689
627080.355063829 1013799.2349568143 103.5 60 14 56 4689
627094.656599143 1013736.0508054349 108.5 60 15 00 4689
627114.5369573201 1013697.8206042174 98.2 60 15 08 4689
627109.9881145055 1013697.6953855762 100.2 60 15 12 4689
627113.4398033936 1013690.4634425241 99.6 60 15 16 4689
627118.7055474784 1013696.5955124698 99.5 60 15 20 4689
627124.20317327 1013692.1346771641 96.7 60 15 24 4689
627126.7661761665 1013691.3025104436 88.8 60 15 28 4689
627131.4077857983 1013696.7469719975 95.9 60 15 32 4689
627136.001214256 1013700.0902415817 95.5 60 15 36 4689
627130.544409698 1013705.5243188179 91.7 60 15 40 4689
627123.9024333737 1013707.051075847 92.2 60 15 44 4689
627157.3911837734 1013745.9174826195 91.1 60 15 48 4689
627191.1925435247 1013745.6945675031 71.9 60 15 52 4689
627195.0836659722 1013748.7370153748 83.5 60 15 56 4689
627194.5640649045 1013736.0627652325 76.4 60 16 00 4689
627229.7398377762 1013708.2875320078 61.1 60 16 08 4689
627240.1619376675 1013713.562639752 65.9 60 16 12 4689
627268.3776836051 1013687.1362203368 64.6 60 16 16 4689
627285.0880698655 1013698.3476825814 61.1 60 16 20 4689
627288.5464474853 1013695.8707544926 59.4 60 16 24 4689
627325.3507157884 1013701.5405340295 73.1 60 16 28 4689
627329.1513151479 1013701.9840505916 74.3 60 16 32 4689
627328.7822004172 1013700.5895402343 73.9 60 16 36 4689
627327.2703724693 1013702.5751249774 74.3 60 16 40 4689
627327.1157505854 1013702.817904767 70.3 60 16 44 4689
627326.629765552 1013703.5904052373 67.3 60 16 48 4689
627342.4541252285 1013710.1325205582 65.8 60 16 52 4689
627331.0929148406 1013679.1663915152 69.9 60 16 56 4689
627333.988464314 1013677.4396034224 67.4 60 17 01 4689
627328.3333865888 1013676.1939259466 49.4 60 17 04 4689
627329.6600723253 1013680.5108610913 69.5 60 17 08 4689
627332.9800251723 1013676.662285811 72.0 60 17 12 4689
627326.2817249934 1013675.2031420352 62.7 60 17 16 4689
627325.9333998639 1013670.7677214529 83.9 60 17 20 4689
627327.7603850225 1013676.6896934711 63.2 60 17 24 4689
627330.8067425868 1013675.903329702 70.4 60 17 28 4689
627326.1310593525 1013674.2184855578 70.9 60 17 32 4689
627327.1766089099 1013677.1190776757 70.7 60 17 36 4689
627327.2895939996 1013676.1573872068 72.8 60 17 40 4689
627349.0572202669 1013621.8217038978 -78.3 60 17 44 4689
627364.8395600532 1013617.5488664735 74.4 60 17 48 4689
627394.6872884696 1013596.2255653004 99.3 60 17 52 4689
627414.2342381522 1013606.9707302203 90.6 60 17 56 4689
627412.5463378757 1013609.0331514506 92.3 60 18 00 4689
627526.3462508328 1013570.8296703632 103.0 61 06 08 4689
627528.887266217 1013566.6026181504 96.2 61 06 12 4689
627547.1855050612 1013565.8986801034 97.6 61 06 16 4689
627630.190470537 1013542.9226008687 64.6 61 06 20 4689
627633.095047439 1013538.4092173973 63.4 61 06 24 4689
627636.7972606528 1013531.8968930796 78.0 61 06 28 4689
627635.9796843088 1013533.2654573944 72.3 61 06 32 4689
627633.6868458021 1013532.0969486603 71.2 61 06 36 4689
627641.3806095946 1013528.1519431367 68.7 61 06 40 4689
627630.6940964872 1013540.0933517982 67.6 61 06 44 4689
627628.9017622387 1013540.4635374066 72.7 61 06 48 4689
627632.9684372143 1013536.7832662651 79.6 61 06 52 4689
627634.7810695916 1013536.9328775437 76.3 61 06 56 4689
627638.7049520577 1013536.6359271718 78.9 61 07 00 4689
627634.9057149144 1013539.1670183762 72.9 61 07 08 4689
627636.5561785062 1013535.0919079344 76.4 61 07 12 4689
627640.2446440825 1013539.6376492588 71.9 61 07 16 4689
627638.2209761929 1013516.3759065877 76.5 61 07 20 4689
627609.0561011835 1013424.8753729182 94.2 61 07 24 4689
627608.7701503083 1013424.951856172 95.7 61 07 28 4689
627608.8597367702 1013424.4324144187 97.0 61 07 32 4689
627612.568324064 1013422.7525012242 106.1 61 07 36 4689
627610.8955032629 1013433.7499162448 99.3 61 07 40 4689
627614.7961572548 1013447.452452436 100.3 61 07 44 4689
627603.7922941855 1013435.1645299379 101.4 61 07 48 4689
627615.0924771607 1013440.7632538951 114.1 61 07 52 4689
627612.1136431748 1013437.6463045591 111.0 61 07 56 4689
627614.3832012163 1013435.8179886456 113.5 61 08 00 4689
627613.3745098847 1013435.1180700044 103.3 61 08 08 4689
627610.902895971 1013431.4609117211 110.3 61 08 12 4689
627610.6045995302 1013431.9575631958 111.0 61 08 16 4689
627611.2097881008 1013431.7051812595 107.7 61 08 20 4689
627612.6511022104 1013431.145872727 116.5 61 08 24 4689
627610.7279484269 1013427.789054782 107.8 61 08 28 4689
627612.347281478 1013429.950615787 109.7 61 08 32 4689
627609.2908729744 1013430.438359523 106.8 61 08 36 4689
627611.7104130851 1013429.8048034982 108.0 61 08 40 4689
627611.4269979009 1013429.0961692355 114.3 61 08 44 4689
627612.7253659088 1013425.1636760122 110.3 61 08 48 4689
627611.3548414423 1013434.4259443581 106.8 61 08 52 4689
627612.3244359567 1013433.6218339445 111.2 61 08 56 4689
627613.9868297545 1013436.059986847 112.2 61 09 00 4689
627621.8583408915 1013434.9243092404 112.1 61 09 08 4689
627612.1585257091 1013437.3589387011 110.5 61 09 12 4689
627610.2262653211 1013436.821908917 113.3 61 09 16 4689
627615.7751325822 1013436.9393532231 112.4 61 09 20 4689
627608.6531831875 1013430.5468811179 115.6 61 09 24 4689
627596.2423071107 1013435.4166007495 120.4 61 09 28 4689
627608.9284558366 1013433.776737715 102.6 61 09 32 4689
627613.3565570859 1013437.2743431443 110.4 61 09 36 4689
627615.4491686602 1013442.6000519353 121.0 61 09 40 4689
627615.2623882372 1013445.9942879599 124.3 61 09 44 4689
627607.8861807227 1013436.6705959092 118.1 61 09 48 4689
627603.5114751842 1013437.0545594991 114.4 61 09 52 4689
627606.5680973318 1013436.5004674308 116.2 61 09 56 4689
627607.5225248049 1013436.9901065838 114.6 61 10 00 4689
627608.9179316134 1013433.6329483201 111.1 61 10 08 4689
627608.4170099653 1013439.0276873142 111.6 61 10 12 4689
627609.969719901 1013434.5984006167 110.6 61 10 16 4689
627611.172168512 1013436.5485111658 113.8 61 10 20 4689
627609.8872648756 1013436.3121410862 105.1 61 10 24 4689
627606.9862781265 1013432.9079328474 114.3 61 10 28 4689
627609.2505148875 1013432.7272575683 115.4 61 10 32 4689
627607.3284817786 1013435.8283785541 113.5 61 10 36 4689
627603.6381588893 1013438.6583942801 114.7 61 10 40 4689
627631.1841752678 1013473.4255936989 100.5 61 10 44 4689
627608.1063993355 1013494.3725162221 91.3 61 10 48 4689
627606.1994053442 1013503.0248559667 79.1 61 10 52 4689
627621.9106111008 1013510.5951168102 104.0 61 10 56 4689
627607.9578707517 1013506.3369098901 74.8 61 11 00 4689
627596.6475949173 1013527.6867625071 79.0 61 11 08 4689
627604.2729479735 1013527.9104360996 102.1 61 11 12 4689
627591.3986076368 1013526.5861160945 81.0 61 11 16 4689
627591.0793309889 1013550.5922376824 93.6 61 11 20 4689
627536.9254869658 1013643.1617218162 97.1 61 11 24 4689
627527.4347484378 1013669.3498528498 101.2 61 11 28 4689
627523.4892970931 1013669.5251036935 98.2 61 11 32 4689
627518.3048370444 1013665.4611005984 100.3 61 11 36 4689
627513.3747764048 1013667.6899818406 104.0 61 11 40 4689
627510.1189597978 1013665.2798633621 102.0 61 11 44 4689
627507.1673971722 1013660.526408843 101.2 61 11 48 4689
627502.6693117508 1013661.6951075968 98.5 61 11 52 4689
627511.9506055762 1013662.9414572426 107.6 61 11 56 4689
627509.0910448922 1013663.7284105838 111.0 61 12 00 4689
627529.6283640327 1013687.6359849464 104.2 61 12 08 4689
627529.4317647851 1013680.4586389851 108.2 61 12 12 4689
627532.9450817846 1013688.199598221 101.5 61 12 16 4689
627531.279847321 1013683.2401901796 104.9 61 12 20 4689
627528.6599761944 1013677.8574922845 99.9 61 12 24 4689
627533.7719846445 1013677.1331029347 105.7 61 12 28 4689
627529.0107846267 1013678.1129612804 110.6 61 12 32 4689
627532.8668567496 1013681.7967018111 98.5 61 12 36 4689
627532.028995078 1013679.2395741221 104.7 61 12 40 4689
627531.2129601259 1013680.1326462375 103.2 61 12 44 4689
627528.5879767686 1013679.737137974 103.5 61 12 48 4689
627533.9016605259 1013681.2139630183 97.4 61 12 52 4689
627533.4983227852 1013687.0181669368 104.4 61 12 56 4689
627532.8595097942 1013680.668751196 105.9 61 13 00 4689
627529.4860286021 1013680.6689181975 100.2 61 13 08 4689
627531.4977308904 1013680.4210763815 98.2 61 13 12 4689
627526.8371269181 1013687.682264263 90.5 61 13 16 4689
627530.0484373013 1013680.0514799084 101.1 61 13 20 4689
627531.7296301594 1013680.0679656417 103.7 61 13 24 4689
627532.5746676378 1013680.4024370238 100.4 61 13 28 4689
627530.5969301986 1013680.3407614508 101.9 61 13 32 4689
627533.8312241867 1013686.0129539932 112.7 61 13 36 4689
627529.7378840329 1013691.1528164707 110.4 61 13 40 4689
627526.8023122124 1013684.8512765719 90.9 61 13 44 4689
627527.5332310596 1013679.6895004432 95.3 61 13 48 4689
627529.8806835918 1013680.9577030797 99.5 61 13 52 4689
627526.9574914944 1013674.2249371062 109.6 61 13 56 4689
627515.6310386745 1013669.9752348799 109.8 61 14 00 4689
627515.335594807 1013672.9931441573 91.6 61 14 08 4689
627512.9840118776 1013666.1958761591 96.2 61 14 12 4689
627507.4615048144 1013668.1353349563 84.5 61 14 16 4689
627509.6458455062 1013668.8722206358 100.0 61 14 20 4689
627511.0558261472 1013667.8041356083 104.7 61 14 24 4689
627509.3461597858 1013669.8001341884 92.4 61 14 28 4689
627510.6314537725 1013666.5089673853 109.8 61 14 32 4689
627513.9595845669 1013670.3458150362 94.1 61 14 36 4689
627509.0671354482 1013667.7313677358 97.6 61 14 40 4689
627511.5494896618 1013664.6541689044 98.5 61 14 44 4689
627531.5498738341 1013654.0587183711 91.0 61 14 48 4689
627540.213318283 1013656.077147376 90.5 61 14 52 4689
627539.399904159 1013649.3511922095 92.1 61 14 56 4689
627539.1415727041 1013647.6805840376 86.3 61 15 00 4689
627533.4345785775 1013648.9006671259 92.8 61 15 08 4689
627530.6825512815 1013647.0119044596 97.2 61 15 12 4689
627529.3633168613 1013636.9890011005 80.2 61 15 16 4689
627538.7568705056 1013647.7125163331 91.1 61 15 20 4689
627544.7461564172 1013654.355659526 95.3 61 15 24 4689
627535.4303674477 1013650.1787926579 86.4 61 15 28 4689
627537.2260870052 1013648.7580943238 97.9 61 15 32 4689
627537.1456052888 1013646.4577482785 98.7 61 15 36 4689
627533.2017795927 1013652.9361244886 84.4 61 15 40 4689
627523.1149306152 1013656.1435864583 83.9 61 15 44 4689
627542.255638758 1013653.1533429011 96.7 61 15 48 4689
627540.7950344365 1013652.8832325985 99.7 61 15 52 4689
627545.3929904634 1013648.0103944947 92.0 61 15 56 4689
627552.0539507474 1013630.4052783217 92.6 61 16 00 4689
627567.8666742163 1013603.1206955557 91.0 61 16 08 4689
627571.968593545 1013571.5077533873 79.9 61 16 12 4689
627606.4677226332 1013556.0382951931 71.0 61 16 16 4689
627658.5960979029 1013546.276518258 34.0 61 16 20 4689
627663.9055082676 1013542.2795803751 30.9 61 16 24 4689
627672.867843197 1013550.4251954276 46.8 61 16 28 4689
627724.0513345106 1013554.2287528663 128.0 61 16 32 4689
627617.2041363027 1013525.2429666973 61.0 61 16 36 4689
627628.1095906324 1013523.763233155 66.1 61 16 40 4689
627624.2076483303 1013524.0713137124 65.4 61 16 44 4689
627616.9456736658 1013530.4173268283 70.2 61 16 48 4689
627622.5236458911 1013463.6885989314 83.4 61 16 52 4689
627607.100370692 1013411.1901771722 97.8 61 16 56 4689
627603.5523248608 1013414.1975823737 107.8 61 17 00 4689
627594.6814766632 1013398.1236217604 90.7 61 17 08 4689
627565.4541742968 1013393.9709285164 105.2 61 17 12 4689
627563.8074985435 1013396.8738944071 108.1 61 17 16 4689
627558.6736192525 1013397.5539814509 101.2 61 17 20 4689
627561.5411629241 1013411.319522853 100.5 61 17 24 4689
627555.5573936123 1013409.7631288978 97.8 61 17 28 4689
627548.9022176064 1013340.4626132967 116.8 61 17 32 4689
627571.6438365804 1013345.3684175499 125.2 61 17 36 4689
627594.4089540243 1013325.9796502166 124.3 61 17 40 4689
627556.7714456933 1013326.422103855 134.4 61 17 44 4689
627532.3185294329 1013283.1502218221 129.7 61 17 48 4689
627506.3272638089 1013192.1576838471 122.6 61 17 52 4689
627522.8911327448 1013139.8510059139 109.3 61 17 56 4689
627536.1583811009 1013114.8029771682 96.0 61 18 00 4689
627421.0298926926 1012920.4836553526 149.7 62 06 08 4689
627425.4119677467 1012921.2386725104 155.5 62 06 12 4689
627427.6923629863 1012922.8715635242 152.3 62 06 16 4689
627422.7774055537 1012920.3897650865 151.4 62 06 20 4689
627420.8349130844 1012919.6094371116 151.2 62 06 24 4689
627426.5405633486 1012925.6544917439 151.4 62 06 28 4689
627448.505172993 1012933.0568176081 150.2 62 06 32 4689
627454.5519080039 1012945.7820690685 146.2 62 06 36 4689
627495.6560677096 1012974.4998077531 126.1 62 06 40 4689
627500.2497698384 1012970.9649732771 125.6 62 06 44 4689
627516.8732602578 1012961.5086257095 120.4 62 06 48 4689
627545.8910707189 1012962.5753538274 116.9 62 06 52 4689
627534.75931079 1012959.2220079947 115.4 62 06 56 4689
627520.2883351366 1012969.0723259532 125.4 62 07 00 4689
627524.004346296 1012975.3210833014 131.9 62 07 08 4689
627542.0229288661 1013010.2896470457 119.6 62 07 12 4689
627543.9688053064 1013006.6135771197 117.5 62 07 16 4689
627603.5259504253 1012996.9419582055 111.1 62 07 20 4689
627631.6372795168 1012986.0630717066 118.0 62 07 24 4689
627639.7669648817 1012986.6754008246 123.2 62 07 28 4689
627637.8667007177 1012979.6252510853 122.4 62 07 32 4689
627636.6395372986 1012981.9213749181 120.3 62 07 36 4689
627638.1245804976 1012978.0337163921 122.9 62 07 40 4689
627632.4420711009 1012978.446634832 117.9 62 07 44 4689
627633.8393396992 1012977.9203571543 129.5 62 07 48 4689
627635.7883518748 1012980.0829808868 117.5 62 07 52 4689
627636.6557030814 1012980.318001659 121.2 62 07 56 4689
627636.4487045216 1012979.7644279638 118.9 62 08 00 4689
627636.0148283741 1012981.4106849285 113.4 62 08 08 4689
627634.1546810776 1012982.3556760257 114.1 62 08 12 4689
627637.1588945115 1012981.0273452129 119.0 62 08 16 4689
627635.6295482941 1012981.6195449496 113.3 62 08 20 4689
627635.4273615116 1012982.9790392311 119.8 62 08 24 4689
627696.9281680611 1013062.1878510789 91.2 62 08 28 4689
627704.1772800476 1013056.4499959621 97.0 62 08 32 4689
627706.0647319211 1013060.658175605 95.4 62 08 36 4689
627707.2681291541 1013052.1141449534 96.7 62 08 40 4689
627694.8721136275 1013072.7527611313 87.3 62 08 44 4689
627693.2945638369 1013057.6533457838 105.6 62 08 48 4689
627700.0361554932 1013062.7507974443 99.4 62 08 52 4689
627699.0204739155 1013067.6130841706 97.0 62 08 56 4689
627693.9331602652 1013064.069112069 99.8 62 09 00 4689
627688.3400266632 1013057.2281902867 101.3 62 09 08 4689
627684.3703510693 1013068.2845337065 94.4 62 09 12 4689
627684.2749494918 1013077.4071653009 100.1 62 09 16 4689
627668.7734006834 1013066.1109965764 98.7 62 09 20 4689
627656.642044167 1013049.0423290024 98.3 62 09 24 4689
627675.1811713653 1013058.8886327671 104.5 62 09 28 4689
627676.2363396307 1013055.4087368959 86.6 62 09 32 4689
627675.316820688 1013057.7169114333 94.5 62 09 36 4689
627672.1443298379 1013056.7114344303 91.6 62 09 40 4689
627674.3977786844 1013056.4754347311 93.7 62 09 44 4689
627687.318515462 1013057.0921931011 85.9 62 09 48 4689
627695.7640542364 1013078.9813581663 88.2 62 09 52 4689
627685.3574621358 1013079.0693785602 86.6 62 09 56 4689
627688.1508513817 1013078.3706834436 82.9 62 10 00 4689
627701.066895524 1013073.6353071287 82.4 62 10 08 4689
627699.488529917 1013082.5983345277 85.4 62 10 12 4689
627698.9782108094 1013080.6946909933 79.7 62 10 16 4689
627699.1362726282 1013086.1910820276 70.9 62 10 20 4689
627712.9349477212 1013093.9652836304 81.9 62 10 24 4689
627713.940983667 1013092.0886555914 81.9 62 10 28 4689
627698.4603088546 1013091.3419771374 80.2 62 10 32 4689
627706.4823737686 1013091.2462561879 79.2 62 10 36 4689
627709.2088863428 1013094.2407552197 76.5 62 10 40 4689
627710.7180551969 1013089.6896901827 82.8 62 10 44 4689
627711.843539946 1013095.056510032 78.1 62 10 48 4689
627711.8778277175 1013094.6474707526 76.2 62 10 52 4689
627714.3381093761 1013091.6144400414 74.8 62 10 56 4689
627707.9765206281 1013094.745446453 71.1 62 11 00 4689
627708.953790643 1013094.9697662418 79.4 62 11 08 4689
627710.1670769057 1013100.3700440689 85.3 62 11 12 4689
627711.2395604699 1013094.9329192976 81.1 62 11 16 4689
627707.9533444796 1013091.7154494907 79.5 62 11 20 4689
627711.1224571922 1013097.1662791265 83.3 62 11 24 4689
627710.8140978034 1013097.375386873 95.0 62 11 28 4689
627710.0761115195 1013097.9148497557 102.9 62 11 32 4689
627718.9780004744 1013063.5860654182 21.9 62 11 36 4689
627711.0097290267 1013094.6446658316 88.5 62 11 40 4689
627715.3697864547 1013092.0048074323 78.3 62 11 44 4689
627710.4874019434 1013089.655770596 72.5 62 11 48 4689
627707.049841539 1013078.8630067983 86.5 62 11 52 4689
627693.6462846542 1013054.2264682221 87.6 62 11 56 4689
627702.9615465838 1013055.2075599361 96.0 62 12 00 4689
627691.8312083256 1013061.6295376424 106.2 62 12 08 4689
627693.1186464574 1013064.4866888815 99.0 62 12 12 4689
627692.8043141143 1013076.7491164202 83.6 62 12 16 4689
627692.336791541 1013078.6053683885 88.6 62 12 20 4689
627690.7491967231 1013076.8198840175 90.2 62 12 24 4689
627696.5426725784 1013079.470430435 78.3 62 12 28 4689
627711.0490420025 1013102.8830847476 75.6 62 12 32 4689
627711.5342387084 1013105.7597610743 66.3 62 12 36 4689
627717.492773167 1013118.5400736282 70.5 62 12 40 4689
627743.1557378825 1013140.993566758 53.5 62 12 44 4689
627744.6433062438 1013139.7266918911 63.5 62 12 48 4689
627741.6638835829 1013136.7866627483 66.8 62 12 52 4689
627748.6457782112 1013135.5264879849 72.0 62 12 56 4689
627757.7180211947 1013136.8938436975 60.9 62 13 00 4689
627745.6413046019 1013133.5373751587 71.9 62 13 08 4689
627740.2813762352 1013139.5467222935 71.6 62 13 12 4689
627740.5637363757 1013143.981937478 68.5 62 13 16 4689
627743.9057653056 1013143.5282983974 75.9 62 13 20 4689
627745.8053043673 1013147.3937188104 87.8 62 13 24 4689
627746.1586026285 1013143.4802892738 88.6 62 13 28 4689
627753.4381684995 1013145.3173488762 103.7 62 13 32 4689
627739.8343469081 1013138.4615826086 45.5 62 13 36 4689
627745.9694575213 1013140.8036149663 76.6 62 13 40 4689
627747.2268894318 1013142.7428486778 81.0 62 13 44 4689
627742.0292751871 1013139.3312092877 76.5 62 13 48 4689
627743.9247791539 1013137.645444621 85.7 62 13 52 4689
627750.0950157677 1013142.7189447182 94.4 62 13 56 4689
627746.196198589 1013138.6480160987 93.1 62 14 00 4689
627747.5076441951 1013140.874935287 95.1 62 14 08 4689
627747.6780682631 1013135.7445224109 81.1 62 14 12 4689
627751.5126183626 1013135.900671921 89.1 62 14 16 4689
627742.0724624788 1013136.1687290517 77.9 62 14 20 4689
627761.0143958669 1013140.3656881262 116.7 62 14 24 4689
627758.0695429859 1013143.7288930822 103.4 62 14 28 4689
627754.2262771748 1013139.4701552179 97.7 62 14 32 4689
627745.6532709732 1013143.4344235259 88.9 62 14 36 4689
627742.0538970849 1013138.5129886332 75.0 62 14 40 4689
627744.6773279276 1013136.0002183284 74.4 62 14 44 4689
627746.1822988582 1013136.1488379966 74.4 62 14 48 4689
627737.7029891929 1013145.1227351897 70.2 62 14 52 4689
627740.7732533392 1013140.3555541544 70.0 62 14 56 4689
627744.6677623513 1013149.1593399467 68.3 62 15 00 4689
627766.4015813173 1013146.3213088574 94.3 62 15 08 4689
627742.0978349042 1013135.118290488 65.1 62 15 12 4689
627744.4164612129 1013135.1147262802 63.5 62 15 16 4689
627741.6767663602 1013136.2006244905 57.7 62 15 20 4689
627755.4090609623 1013137.3065884905 79.3 62 15 24 4689
627723.3454026824 1013140.2881730946 66.5 62 15 28 4689
627741.9074550731 1013136.2234863015 72.4 62 15 32 4689
627745.2160509764 1013142.7142331346 77.4 62 15 36 4689
627731.5638222493 1013147.4361556733 69.8 62 15 40 4689
627735.3641168555 1013154.7910233686 78.3 62 15 44 4689
627735.068196424 1013144.3512101325 62.7 62 15 48 4689
627734.3225966722 1013154.0467638421 76.8 62 15 52 4689
627734.6074231036 1013157.7189772497 81.5 62 15 56 4689
627731.9049657079 1013160.883921132 68.7 62 16 00 4689
627732.3264684255 1013241.2666941177 87.6 62 16 08 4689
627699.2129970437 1013320.9107746237 124.8 62 16 12 4689
627697.321953706 1013345.0224032413 123.7 62 16 16 4689
627697.3115012044 1013344.8564978008 108.7 62 16 20 4689
627707.828413325 1013324.2118174416 113.6 62 16 24 4689
627704.4012974738 1013320.3967518044 109.5 62 16 28 4689
627697.8332139722 1013329.6311651936 113.7 62 16 32 4689
627712.0242823992 1013406.3650296151 101.5 62 16 36 4689
627733.8831135242 1013409.0011684361 87.7 62 16 40 4689
627742.134032905 1013460.4591252359 78.2 62 16 44 4689
627730.0175590325 1013469.4323154856 72.9 62 16 48 4689
627633.5764753544 1013528.8455078871 76.1 62 16 52 4689
627637.9545986468 1013544.4073541925 83.1 62 16 56 4689
627637.8062766496 1013539.2980282843 81.7 62 17 00 4689
627625.5994773072 1013532.026590323 78.3 62 17 08 4689
627604.2612053906 1013487.3160822506 86.6 62 17 12 4689
627608.2369307383 1013433.5422840912 84.2 62 17 16 4689
627602.2292604533 1013432.5829430255 101.6 62 17 20 4689
627601.6108693962 1013433.5208851425 105.7 62 17 24 4689
627605.386350678 1013431.5426185281 111.6 62 17 28 4689
627564.4253604447 1013392.6959248943 115.9 62 17 32 4689
627557.6819536623 1013391.579402853 101.7 62 17 36 4689
627517.5804084796 1013287.2826252036 129.6 62 17 40 4689
627366.6439587327 1013217.9923787726 114.1 62 17 44 4689
627334.3081446602 1013172.4725762836 114.4 62 17 48 4689
627287.2257261298 1013137.1008803973 127.7 62 17 52 4689
627273.927370089 1013134.3267057282 135.9 62 17 56 4689
627277.9093373407 1013146.7135364638 130.8 62 18 00 4689
627277.7079533448 1013079.5791962624 137.9 63 06 08 4689
627276.7221501854 1013078.5918515102 137.6 63 06 12 4689
627283.9100706327 1013078.1837320213 143.4 63 06 16 4689
627273.4135192981 1013078.9129404795 138.1 63 06 20 4689
627303.5981178153 1013137.3305408667 125.4 63 06 24 4689
627324.9233699676 1013199.8995951728 109.6 63 06 28 4689
627331.8618317037 1013218.9308179293 115.6 63 06 32 4689
627336.0785820431 1013219.8290519173 97.4 63 06 36 4689
627322.6650546507 1013232.3478334445 108.4 63 06 40 4689
627328.0537854559 1013231.0161069664 104.9 63 06 44 4689
627291.0756154071 1013200.7305014005 108.9 63 06 48 4689
627228.0644710901 1013215.0579386814 118.6 63 06 52 4689
627183.1335891273 1013224.7660792433 111.7 63 06 56 4689
627179.1235707391 1013217.6759959279 119.0 63 07 00 4689
627158.9548889531 1013184.923381154 126.1 63 07 08 4689
627128.2388906033 1013168.6797559496 129.7 63 07 12 4689
627131.0588955891 1013166.5324994026 132.9 63 07 16 4689
627089.9633843662 1013152.2128034775 128.1 63 07 20 4689
627044.4274209315 1013148.4614692434 128.1 63 07 24 4689
626992.1812763544 1013177.6970101068 114.2 63 07 28 4689
626930.6886168881 1013229.0633099959 120.1 63 07 32 4689
626850.1375168057 1013302.3187950882 111.9 63 07 36 4689
626847.4424787976 1013306.6227954172 106.9 63 07 40 4689
626850.8549488646 1013304.7538757217 106.3 63 07 44 4689
626848.2293256059 1013314.8193586493 107.4 63 07 48 4689
626849.2657030141 1013310.3220467208 104.1 63 07 52 4689
626856.6982606902 1013308.9968200692 106.1 63 07 56 4689
626812.4032584061 1013298.6922753992 101.1 63 08 00 4689
626818.3950195977 1013304.6165178511 110.8 63 08 08 4689
626801.5751011467 1013303.4788513035 109.7 63 08 12 4689
626747.0992871035 1013359.9324999718 96.5 63 08 16 4689
626685.2987799309 1013366.9884158527 99.8 63 08 20 4689
626672.573908964 1013360.1579639394 97.4 63 08 24 4689
626682.6113241317 1013348.3690602256 105.7 63 08 28 4689
626680.505468935 1013350.5628659492 97.4 63 08 32 4689
626678.7912299538 1013350.5684284577 103.6 63 08 36 4689
626677.8518559257 1013352.2351862546 103.4 63 08 40 4689
626684.4583113308 1013348.0874715876 98.5 63 08 44 4689
626673.381777235 1013344.6681916212 96.4 63 08 48 4689
626678.1066141754 1013341.3216834861 106.2 63 08 52 4689
626685.7086911579 1013355.6662614562 106.8 63 08 56 4689
626688.6055400043 1013353.5302823493 119.0 63 09 00 4689
626691.9931440626 1013359.4129812105 109.2 63 09 08 4689
626689.0455101874 1013343.1149864305 102.9 63 09 12 4689
626699.6183618156 1013325.4117324011 88.2 63 09 16 4689
626721.5390606506 1013322.4742252795 100.1 63 09 20 4689
626760.284940571 1013343.0117053771 109.6 63 09 24 4689
626765.2510823504 1013350.0826897969 107.3 63 09 28 4689
626765.3823850411 1013346.8320362151 110.4 63 09 32 4689
626768.0405533582 1013367.7182143785 100.4 63 09 36 4689
626776.8504294596 1013385.7711458887 96.6 63 09 40 4689
626757.5080090837 1013417.3794264339 102.0 63 09 44 4689
626759.6077288748 1013417.0986524102 100.7 63 09 48 4689
626759.7391380168 1013413.8148248945 94.4 63 09 52 4689
626725.5698119174 1013419.0573313128 90.0 63 09 56 4689
626718.8218449164 1013409.0834210581 95.3 63 10 00 4689
626680.8605013718 1013356.3584352111 105.0 63 10 08 4689
626678.210929981 1013356.7701479131 106.0 63 10 12 4689
626682.3599677262 1013358.2209988955 104.9 63 10 16 4689
626684.2905726878 1013359.277705421 105.9 63 10 20 4689
626682.5702023807 1013357.7682918318 103.6 63 10 24 4689
626681.1705174037 1013359.0575992926 103.6 63 10 28 4689
626680.9524139446 1013358.5371705687 99.7 63 10 32 4689
626680.4940173457 1013357.5625904371 101.3 63 10 36 4689
626680.6325426477 1013358.9121196329 105.4 63 10 40 4689
626683.87531472 1013358.5575992584 103.8 63 10 44 4689
626679.9611817433 1013359.2417095694 95.1 63 10 48 4689
626680.5350643324 1013358.469484145 99.4 63 10 52 4689
626681.2662940713 1013360.0310169098 100.9 63 10 56 4689
626680.2130660119 1013359.5079108684 98.9 63 11 00 4689
626681.6636860974 1013362.8963322472 86.2 63 11 08 4689
626680.0833312566 1013358.8440104797 90.7 63 11 12 4689
626678.9737083163 1013355.3461016356 98.5 63 11 16 4689
626684.2655114342 1013360.2396775767 114.2 63 11 20 4689
626681.3653676604 1013359.9760441573 101.9 63 11 24 4689
626678.4555834816 1013355.864170119 101.0 63 11 28 4689
626680.3370589536 1013358.5351978113 104.0 63 11 32 4689
626681.5875479518 1013359.2248073723 103.1 63 11 36 4689
626682.7696953362 1013360.6661469581 105.3 63 11 40 4689
626680.3518760839 1013357.3409732581 104.1 63 11 44 4689
626681.5093878004 1013359.61158941 105.0 63 11 48 4689
626681.6759521182 1013359.0702777435 106.5 63 11 52 4689
626686.1750255935 1013361.0198647276 110.1 63 11 56 4689
626683.1494722309 1013358.7432595077 111.1 63 12 00 4689
626683.0516365586 1013365.2672099251 104.2 63 12 08 4689
626682.7372602464 1013363.928175007 107.8 63 12 12 4689
626681.1968890066 1013361.1144857173 106.5 63 12 16 4689
626682.1475692155 1013362.7762447215 105.9 63 12 20 4689
626670.8643838029 1013368.976827052 102.8 63 12 24 4689
626649.7701243601 1013378.0652963466 93.2 63 12 28 4689
626628.3076770754 1013371.7487003038 105.9 63 12 32 4689
626625.5824960176 1013368.3230228076 98.9 63 12 36 4689
626620.1896677786 1013336.6575384856 101.7 63 12 40 4689
626566.8035061266 1013313.7511173963 107.6 63 12 44 4689
626509.7181116295 1013310.1956112299 117.7 63 12 48 4689
626459.1683660294 1013283.4059894951 120.5 63 12 52 4689
626384.595473469 1013229.7459187881 99.6 63 12 56 4689
626287.3897480355 1013147.3401411768 62.8 63 13 00 4689
626269.8636458949 1013078.3039748986 108.7 63 13 08 4689
626217.756530314 1013026.3416118034 116.2 63 13 12 4689
626194.9794871395 1013004.9157837436 127.3 63 13 16 4689
626178.7704926204 1012936.2819857757 129.8 63 13 20 4689
626158.9948919107 1012935.0135424228 116.6 63 13 24 4689
626115.6908354536 1012906.710509919 123.4 63 13 28 4689
626075.0388938425 1012811.7138316836 131.1 63 13 32 4689
626062.7246668122 1012793.1855069934 137.3 63 13 36 4689
626053.4475940153 1012793.996340413 134.2 63 13 40 4689
626003.2856741528 1012762.4537072484 135.7 63 13 44 4689
626001.582748436 1012765.7988686259 149.9 63 13 48 4689
625988.5022698854 1012767.017803142 154.8 63 13 52 4689
625946.6422800438 1012757.8942484698 139.7 63 13 56 4689
625926.7113425481 1012732.9169915362 150.8 63 14 00 4689
625751.9791835134 1012788.2703308002 132.0 63 14 08 4689
625650.1018294625 1012792.02684905 120.3 63 14 12 4689
625607.2426492561 1012813.7855718799 119.3 63 14 16 4689
625614.7053820371 1012813.3448441934 108.3 63 14 20 4689
625543.3362254365 1012843.7046708793 117.3 63 14 24 4689
625545.2344672752 1012858.4289387282 111.0 63 14 28 4689
625542.7655477546 1012857.3152954421 110.3 63 14 32 4689
625552.8520862955 1012854.1957874405 113.8 63 14 36 4689
625547.360144711 1012856.8986226098 108.7 63 14 40 4689
625545.6349723621 1012856.8820861357 110.2 63 14 44 4689
625545.1944809532 1012857.1792541795 111.5 63 14 48 4689
625519.8998885874 1012856.745080808 101.4 63 14 52 4689
625500.1331564691 1012869.9851381152 107.3 63 14 56 4689
625447.8995810798 1012874.8175879545 121.5 63 15 00 4689
625371.628396702 1012957.5771829019 98.2 63 15 08 4689
625322.3147130039 1012973.8309239381 77.6 63 15 12 4689
625257.6568902628 1013005.2298199433 79.1 63 15 16 4689
625118.0560907763 1013071.5449572613 89.2 63 15 20 4689
625102.7190373271 1013074.0508137066 87.2 63 15 24 4689
625096.0420129161 1013083.1857191927 92.8 63 15 28 4689
625110.2787726625 1013088.0741916497 100.2 63 15 32 4689
625113.8498239679 1013091.624060912 103.9 63 15 36 4689
625108.368733128 1013087.4488968767 93.0 63 15 40 4689
