628825.5020090425 1012395.0516623869 103.4 32 13 56 4654
628822.9871391754 1012445.1700479789 33.5 32 14 00 4654
628844.9285731995 1012419.2438158833 73.9 32 14 08 4654
628817.208670332 1012407.5314147928 45.0 32 14 12 4654
628820.8549101136 1012411.5463389937 74.2 32 14 16 4654
628817.7948908373 1012402.9884260665 93.2 32 14 20 4654
628837.1414512517 1012364.0272404449 58.0 32 14 24 4654
628868.8312295601 1012358.0042590998 65.7 32 14 28 4654
628863.764802861 1012368.282888276 74.3 32 14 32 4654
628887.5056176708 1012373.5907441658 75.7 32 14 36 4654
628892.983782567 1012378.595820056 91.6 32 14 40 4654
628904.3403678797 1012370.317100907 78.8 32 14 44 4654
628902.3122914544 1012378.9358476656 63.8 32 14 48 4654
628901.7186806769 1012375.6275266856 64.7 32 14 52 4654
628908.425754843 1012381.2005754703 87.5 32 14 56 4654
628889.2655926164 1012383.1728355017 79.8 32 15 00 4654
628925.8488061663 1012389.6062648755 99.3 32 15 08 4654
628923.118530449 1012391.1455065339 84.9 32 15 12 4654
628925.7582643293 1012390.41321468 71.8 32 15 16 4654
628954.6466066611 1012387.5327447259 74.7 32 15 20 4654
628960.5639396133 1012399.3953167632 119.9 32 15 24 4654
628966.3647265009 1012406.5577959181 118.4 32 15 28 4654
628978.886182968 1012408.3789877375 144.9 32 15 32 4654
628966.8662348525 1012397.6686775399 116.3 32 15 36 4654
628930.1249451978 1012358.823256187 68.9 32 15 40 4654
628955.8344309123 1012377.1087811948 101.6 32 15 44 4654
628948.559600278 1012380.524149006 108.1 32 15 48 4654
628920.0542889271 1012373.774224288 79.7 32 15 52 4654
628906.5822702141 1012370.2691163834 115.2 32 15 56 4654
628839.3802757522 1012348.0555112829 64.1 32 16 00 4654
628857.3729286578 1012343.5360481141 62.3 32 16 08 4654
628827.5884922468 1012344.8765914694 59.3 32 16 12 4654
628886.2554237503 1012318.848837788 81.7 32 16 16 4654
628862.8169088216 1012345.5442494767 85.6 32 16 20 4654
628885.3562803834 1012345.2306490164 44.1 32 16 24 4654
628857.581264384 1012377.407831218 80.2 32 16 28 4654
628856.6588165167 1012380.5895724944 84.8 32 16 32 4654
628848.399795903 1012385.9037525576 64.6 32 16 36 4654
628827.7393929916 1012416.633392897 86.4 32 16 40 4654
628805.0266583969 1012416.2055605432 73.2 32 16 44 4654
628784.3059325529 1012418.2280772502 59.9 32 16 48 4654
628793.0256177251 1012440.1737133884 69.3 32 16 52 4654
628790.8439342652 1012445.3528792317 96.9 32 16 56 4654
628785.4178952654 1012454.7125177807 104.3 32 17 00 4654
628748.9389000293 1012487.1710439048 59.2 32 17 08 4654
628799.40311811 1012503.0821549947 89.3 32 17 12 4654
628803.3965199443 1012532.0896192268 77.8 32 17 16 4654
628822.533440402 1012537.2276400212 103.9 32 17 20 4654
628824.9849527049 1012543.671467112 90.9 32 17 24 4654
628821.3194950741 1012548.9342631759 77.7 32 17 28 4654
628805.459057733 1012593.8560838569 48.3 32 17 32 4654
628868.1380200075 1012604.4770639508 105.3 32 17 36 4654
628886.2519786676 1012603.1648866306 98.0 32 17 40 4654
628869.5117982994 1012601.0535146475 80.2 32 17 44 4654
628903.3135606286 1012587.5842735311 90.1 32 17 48 4654
628925.2432239373 1012588.8610998694 91.5 32 17 52 4654
628958.3572410314 1012597.5944290844 108.2 32 17 56 4654
628976.8090027036 1012600.5297246457 103.4 32 18 00 4654
629094.979683698 1012584.8809867861 68.0 33 06 08 4654
629084.8440211144 1012586.0753562851 100.0 33 06 12 4654
629041.533320186 1012539.9873727163 99.6 33 06 16 4654
629023.4486054059 1012525.5859418644 125.4 33 06 20 4654
629042.7847036871 1012533.6661914017 116.2 33 06 24 4654
629020.4295428832 1012514.5953457359 117.6 33 06 28 4654
628997.88360237 1012449.5662105414 107.4 33 06 32 4654
628962.0069500268 1012438.7780979004 101.0 33 06 36 4654
628953.3118555353 1012480.0961745655 97.4 33 06 40 4654
628936.9498845675 1012533.862849319 96.3 33 06 44 4654
628926.0087095145 1012522.5920987749 104.4 33 06 48 4654
628894.6245361816 1012525.9178264922 101.2 33 06 52 4654
628873.7206487393 1012530.2066131614 110.6 33 06 56 4654
628858.1415741548 1012522.4814946204 100.3 33 07 00 4654
628859.0262976859 1012524.132041327 93.8 33 07 08 4654
628862.1668576329 1012524.8278794219 86.2 33 07 12 4654
628846.2537209531 1012521.8235066652 110.9 33 07 16 4654
628831.8914867193 1012531.8617481318 106.4 33 07 20 4654
628823.366879286 1012517.5136792015 98.7 33 07 24 4654
628795.9956965637 1012530.3404455266 81.0 33 07 28 4654
628798.1972178326 1012542.6885060901 102.9 33 07 32 4654
628787.8506627894 1012551.2801644307 112.8 33 07 36 4654
628794.8052808731 1012514.5787111106 83.9 33 07 40 4654
628778.5374047982 1012461.9000246372 79.3 33 07 44 4654
628781.3008233034 1012446.8035966789 73.7 33 07 48 4654
628764.5429331948 1012463.612705637 85.3 33 07 52 4654
628751.5596830747 1012451.7492827552 77.5 33 07 56 4654
628750.1985012541 1012447.9297921365 96.9 33 08 00 4654
628732.410759158 1012416.522057067 85.2 33 08 08 4654
628749.489671269 1012388.8659404357 81.3 33 08 12 4654
628754.4462739707 1012375.1810350401 83.4 33 08 16 4654
628751.8633640879 1012365.2092402988 85.1 33 08 20 4654
628742.4816386986 1012364.3382846657 78.7 33 08 24 4654
628755.7100251215 1012375.1740906003 81.2 33 08 28 4654
628775.2714621457 1012371.4558859238 62.6 33 08 32 4654
628777.4099636385 1012372.7898255031 71.4 33 08 36 4654
628766.55960707 1012377.4763288012 67.3 33 08 40 4654
628788.6185406075 1012376.2101112235 78.6 33 08 44 4654
628792.7507568492 1012386.2201288749 83.0 33 08 48 4654
628790.4495845127 1012384.2221699415 96.6 33 08 52 4654
628783.3418815557 1012390.3141812733 67.6 33 08 56 4654
628795.435689735 1012378.3554722981 78.6 33 09 00 4654
628820.8132953851 1012285.9809595221 58.9 33 09 08 4654
628805.3064737595 1012286.4059644684 68.0 33 09 12 4654
628833.8515189033 1012260.7334417163 63.5 33 09 16 4654
628856.2163694038 1012253.2867456396 83.8 33 09 20 4654
628844.3231364397 1012250.8815642385 78.3 33 09 24 4654
628844.2963965883 1012245.5956833875 73.6 33 09 28 4654
628864.3407515143 1012265.6983344456 90.8 33 09 32 4654
628861.8937677788 1012267.9793996967 91.1 33 09 36 4654
628827.899325582 1012300.0478808869 57.0 33 09 40 4654
628872.6513311084 1012291.7894603047 105.3 33 09 44 4654
628871.0549198313 1012289.3404089462 91.0 33 09 48 4654
628866.1366606698 1012274.3737718947 47.6 33 09 52 4654
628865.4303856653 1012278.6620321014 72.0 33 09 56 4654
628856.4102596005 1012274.7291232009 30.2 33 10 00 4654
628863.9645164048 1012293.4862318202 117.4 33 10 08 4654
628850.8310622831 1012283.8670951771 68.2 33 10 12 4654
628837.3414291858 1012282.3855990751 60.1 33 10 16 4654
628812.3532987465 1012275.3928818108 80.4 33 10 20 4654
628777.9172380537 1012284.4811391158 56.4 33 10 24 4654
628787.137354227 1012284.3673997951 92.0 33 10 28 4654
628766.117965804 1012290.3477776675 82.6 33 10 32 4654
628755.0770968719 1012292.7888634945 45.9 33 10 36 4654
628757.8682613188 1012302.9272075839 89.9 33 10 40 4654
628738.8000891382 1012283.3806986479 82.4 33 10 44 4654
628719.3265913398 1012276.947838518 102.6 33 10 48 4654
628747.1081999113 1012242.7248314838 64.4 33 10 52 4654
628721.2794486878 1012254.2850027604 63.0 33 10 56 4654
628715.0525370066 1012259.8601609875 91.3 33 11 00 4654
628683.8434812829 1012249.8394746414 48.8 33 11 08 4654
628684.5984751864 1012250.8371632172 52.3 33 11 09 4654
628708.5994052124 1012314.6986033116 132.9 33 11 12 4654
628715.4425613933 1012312.2327881617 113.8 33 11 16 4654
628715.9375816729 1012342.4673584678 76.0 33 11 20 4654
628725.8387206075 1012366.0755378649 76.9 33 11 24 4654
628735.1318501527 1012387.4148233887 69.1 33 11 32 4654
628736.7455142449 1012398.0690669756 53.1 33 11 36 4654
628747.8819955426 1012379.7487973792 79.7 33 11 40 4654
628758.7493208203 1012413.7326729739 60.0 33 11 44 4654
628765.643260288 1012395.663992365 92.3 33 11 48 4654
628773.883013211 1012399.6385751249 93.0 33 11 52 4654
628787.7718179574 1012389.8862792389 83.8 33 11 56 4654
628807.6563190423 1012405.0675135582 72.5 33 12 00 4654
628806.2259160018 1012415.7560820378 80.3 33 12 08 4654
628806.1245684422 1012440.1279048304 124.4 33 12 12 4654
628794.6477846678 1012441.4617405707 81.4 33 12 16 4654
628791.8100726948 1012438.8759522189 81.2 33 12 20 4654
628802.2789527 1012439.9716252796 112.0 33 12 24 4654
628796.0443178529 1012431.0495153953 60.2 33 12 28 4654
628806.8087044094 1012429.1383360721 85.0 33 12 32 4654
628794.2467067068 1012419.5210745247 76.0 33 12 36 4654
628804.4169743101 1012414.4563881023 66.8 33 12 40 4654
628805.6409714924 1012406.4100442119 79.2 33 12 44 4654
628811.7518411179 1012409.4709349908 45.7 33 12 48 4654
628808.2423126712 1012417.4656030636 35.2 33 12 52 4654
628810.3462754159 1012405.7839950254 86.1 33 12 56 4654
628774.3824193713 1012418.3837556667 52.1 33 13 00 4654
628780.607296984 1012443.8045813022 97.8 33 13 08 4654
628785.1933391399 1012442.6805249013 130.6 33 13 12 4654
628780.4597543706 1012458.7436544908 95.7 33 13 16 4654
628773.8143944249 1012467.9666261937 99.0 33 13 20 4654
628775.5901220588 1012455.8416231882 72.2 33 13 24 4654
628778.6274898684 1012467.982297589 91.5 33 13 28 4654
628776.4260713988 1012475.8485287762 83.1 33 13 32 4654
628775.6171127607 1012474.5520918634 46.1 33 13 36 4654
628771.9405242904 1012479.8590886311 86.4 33 13 40 4654
628779.84738273 1012481.4440319663 68.4 33 13 44 4654
628774.994387606 1012473.4331916615 89.7 33 13 48 4654
628781.8570592129 1012475.0921424169 91.7 33 13 52 4654
628777.8535423366 1012479.557655196 96.8 33 13 57 4654
628786.0680401591 1012494.6566549091 42.2 33 14 00 4654
628783.8075826346 1012490.2813268591 78.4 33 14 08 4654
628775.7789850632 1012472.0866526447 103.6 33 14 12 4654
628764.0324855797 1012482.0117959041 55.4 33 14 16 4654
628743.7944404496 1012521.4345427684 88.1 33 14 20 4654
628748.3486039112 1012540.2260970257 100.8 33 14 24 4654
628749.7358045976 1012576.5566170294 116.8 33 14 28 4654
628751.3748841061 1012586.1493646188 108.6 33 14 32 4654
628763.7916626723 1012626.850591819 169.7 33 14 36 4654
628783.5899780282 1012577.352454786 98.8 33 14 40 4654
628785.7600598484 1012575.7339743793 96.8 33 14 44 4654
628804.656571636 1012577.0782619589 113.2 33 14 48 4654
628806.2964200289 1012576.3095328393 131.8 33 14 52 4654
628802.7237244339 1012566.5888439418 122.7 33 14 56 4654
628805.2344672094 1012571.7169432213 99.2 33 15 00 4654
628799.0131641722 1012572.2053552525 97.6 33 15 08 4654
628808.2858268813 1012582.9287842059 64.6 33 15 12 4654
628771.2380116199 1012553.8689645263 155.7 33 15 16 4654
628795.7378836165 1012562.2644730115 103.5 33 15 20 4654
628783.8739849315 1012550.8801792597 94.8 33 15 24 4654
628775.7696792767 1012518.8183424966 78.5 33 15 28 4654
628752.7445785962 1012496.2179366056 110.7 33 15 32 4654
628764.4829285186 1012532.670622439 128.9 33 15 36 4654
628772.5767226698 1012530.8392075483 108.8 33 15 40 4654
628721.4323556103 1012528.0851037436 76.2 33 15 44 4654
628722.687427643 1012530.7431431257 86.2 33 15 48 4654
628728.6403966268 1012531.6692873074 98.5 33 15 52 4654
628708.2810005036 1012523.9839625375 114.0 33 15 56 4654
628734.9052369728 1012534.6864367499 88.5 33 16 00 4654
628736.6636091345 1012554.8953891526 82.9 33 16 08 4654
628736.3956308598 1012556.1993777751 83.0 33 16 12 4654
628737.1740533597 1012563.5002866819 94.6 33 16 16 4654
628723.8394617953 1012568.4330451362 85.3 33 16 20 4654
628711.5413410198 1012602.6732601459 86.6 33 16 24 4654
628667.7643951871 1012605.2068695967 28.4 33 16 28 4654
628721.1467180464 1012605.7123398877 107.2 33 16 32 4654
628744.4894394521 1012618.4941363739 122.7 33 16 36 4654
628765.5362485051 1012647.9109811883 99.4 33 16 40 4654
628771.8961350142 1012665.6026081594 107.4 33 16 44 4654
628793.6026083834 1012725.265654008 126.1 33 16 48 4654
628735.5671025709 1012763.4373634995 101.8 33 16 52 4654
628782.9273384612 1012770.6909235895 138.7 33 16 56 4654
628787.5008872314 1012780.138419856 138.2 33 17 00 4654
628783.9055032384 1012797.631755168 107.8 33 17 08 4654
628815.8640270805 1012837.180279738 106.5 33 17 12 4654
628832.2556070267 1012828.2102407799 130.4 33 17 16 4654
628820.6538030567 1012840.9667146878 131.4 33 17 20 4654
628824.1126090945 1012855.2761709061 119.6 33 17 24 4654
628877.5846613592 1012851.7570217908 138.4 33 17 28 4654
628849.0355926543 1012848.4239297803 110.2 33 17 32 4654
628859.7639552669 1012844.0466939937 118.3 33 17 36 4654
628856.3031670079 1012840.4636319241 116.2 33 17 40 4654
628870.2388546007 1012843.2625334532 117.4 33 17 44 4654
628877.0395270968 1012843.6938530483 97.9 33 17 48 4654
628890.536926012 1012809.0263181889 129.1 33 17 52 4654
628884.3669295921 1012807.270074867 119.9 33 17 56 4654
628893.6945861776 1012804.4695959683 108.9 33 18 00 4654
628858.501836543 1012846.9287574497 121.4 34 06 08 4654
628856.3398623331 1012856.1773823205 117.9 34 06 12 4654
628859.4627704794 1012862.2806015053 116.7 34 06 16 4654
628857.4929146599 1012859.7860973154 116.0 34 06 20 4654
628867.0770861149 1012852.4526084075 120.2 34 06 24 4654
628898.5793073613 1012853.2851418783 117.9 34 06 28 4654
628916.0776874219 1012821.6716496047 113.4 34 06 32 4654
628930.4698148895 1012815.9241086174 96.9 34 06 36 4654
628955.682295482 1012821.4027140446 93.8 34 06 40 4654
628967.7635615482 1012833.484450513 101.7 34 06 44 4654
628977.2851655892 1012838.6022622824 98.6 34 06 48 4654
629015.6343096381 1012781.9216430163 84.9 34 06 52 4654
629027.8537272925 1012741.5660757956 114.3 34 06 56 4654
629059.6961671012 1012729.0968744825 104.5 34 07 00 4654
629095.345003139 1012735.5274568688 110.3 34 07 08 4654
629098.3995513713 1012708.7103390528 75.1 34 07 12 4654
629101.9298606836 1012697.7300565225 104.3 34 07 16 4654
629099.5831782861 1012696.2184852797 107.7 34 07 20 4654
629107.1970805915 1012686.5453402182 97.2 34 07 24 4654
629099.8397332369 1012691.6854782536 109.8 34 07 28 4654
629109.2064824315 1012690.3890819428 87.4 34 07 32 4654
629112.5567642509 1012694.1597949852 98.9 34 07 36 4654
629108.2583446435 1012691.3369877411 101.3 34 07 40 4654
629105.8788505928 1012683.0466582366 105.8 34 07 44 4654
629104.868715615 1012682.7890224995 105.4 34 07 45 4654
629134.4309423496 1012688.8569601071 91.8 34 07 48 4654
629114.0953575175 1012680.6517495889 99.7 34 07 52 4654
629122.6316589566 1012677.9150838773 98.9 34 07 56 4654
629123.0984569155 1012686.3982157293 145.6 34 08 00 4654
629208.4805355258 1012626.3106177675 100.2 34 08 08 4654
629212.9765609681 1012619.1043291085 99.6 34 08 12 4654
629200.0589046022 1012604.0340818107 97.6 34 08 16 4654
629204.1857556913 1012595.4664321729 95.5 34 08 20 4654
629166.5943813912 1012547.8598938973 88.3 34 08 24 4654
629138.3112265749 1012530.3288123049 100.8 34 08 28 4654
629115.2889792218 1012540.5709041783 108.9 34 08 32 4654
629112.1828268493 1012529.3367337254 105.2 34 08 36 4654
629108.1530573453 1012531.7342562486 104.5 34 08 40 4654
629082.3053409029 1012515.4496837986 108.3 34 08 44 4654
629055.3736796351 1012491.2107806115 101.7 34 08 48 4654
628994.8543233594 1012461.9193451192 86.9 34 08 52 4654
628959.4702920237 1012441.6007136804 82.7 34 08 56 4654
628912.8955117175 1012442.7316276738 77.4 34 09 00 4654
628758.918259259 1012452.9785756161 10.7 34 09 12 4654
628775.5668346654 1012466.3689010758 45.3 34 09 16 4654
628771.5750158587 1012450.3658271007 51.3 34 09 20 4654
628776.7741727574 1012422.9364401444 95.0 34 09 24 4654
628787.7376886995 1012437.4914815903 93.9 34 09 28 4654
628844.4390792127 1012410.9596693098 140.5 34 09 32 4654
628840.3210548635 1012423.5857166741 118.6 34 09 36 4654
628822.8955491314 1012409.186542013 29.9 34 09 40 4654
628830.1124274095 1012406.6887905259 108.1 34 09 44 4654
628834.043570561 1012397.456984635 109.2 34 09 48 4654
628820.986534278 1012391.3767094547 86.3 34 09 52 4654
628825.019685277 1012391.3124380943 119.0 34 09 56 4654
628831.3273897733 1012367.6796078812 96.7 34 10 00 4654
628806.6767571537 1012338.051963188 116.8 34 10 08 4654
628823.6545681563 1012300.9739993768 83.2 34 10 12 4654
628822.7478900481 1012295.9395904825 73.4 34 10 16 4654
628824.3088314913 1012285.6605986062 24.6 34 10 20 4654
628849.5070558948 1012272.0084497177 -12.4 34 10 24 4654
628816.2290279423 1012303.426842267 71.5 34 10 28 4654
628862.0605748692 1012257.2535408074 -17.3 34 10 32 4654
628821.0977867718 1012289.7305972409 34.6 34 10 36 4654
628813.5243342648 1012266.7381675397 30.9 34 10 40 4654
628827.4397755663 1012275.8179873412 41.7 34 10 44 4654
628776.0670269993 1012319.4851991152 81.8 34 10 48 4654
628777.2953462572 1012340.4886133441 66.3 34 10 52 4654
628816.4585890631 1012337.5419682006 39.6 34 10 57 4654
628779.8541279635 1012371.3712824524 37.6 34 11 00 4654
628776.5265094903 1012377.4977186735 82.6 34 11 08 4654
628789.8706474339 1012389.9041712858 77.7 34 11 12 4654
628814.1401745614 1012418.4468693725 112.6 34 11 16 4654
628790.0404765015 1012401.8696369472 69.7 34 11 20 4654
628777.5694484587 1012411.5601987877 79.3 34 11 24 4654
628763.0220366989 1012488.5991601938 69.4 34 11 28 4654
628773.7429509028 1012452.7835610658 74.6 34 11 32 4654
628772.9069475067 1012473.2936973228 96.5 34 11 36 4654
628777.0836279725 1012473.0197847355 92.5 34 11 40 4654
628803.8615652667 1012493.8962976568 94.7 34 11 44 4654
628794.5524380354 1012433.6212051351 62.4 34 11 48 4654
628819.7715247683 1012514.7484895624 83.6 34 11 52 4654
628811.6224521123 1012513.306504157 112.8 34 11 56 4654
628822.7654105818 1012513.2432754027 80.9 34 12 00 4654
628828.1811149438 1012507.0572960592 109.9 34 12 08 4654
628836.337616278 1012519.7122701898 81.4 34 12 12 4654
628828.0589172759 1012524.329723401 76.2 34 12 16 4654
628819.6121089595 1012489.4690474622 71.6 34 12 20 4654
628803.9290379849 1012513.6684823023 56.3 34 12 24 4654
628766.9764066729 1012499.2278534779 91.2 34 12 28 4654
628760.8572965872 1012495.3265223308 105.1 34 12 32 4654
628749.8728209166 1012480.46179085 92.9 34 12 36 4654
628746.7043227176 1012488.3469909875 113.7 34 12 40 4654
628742.9119643541 1012488.7106227451 80.8 34 12 48 4654
628741.1716469425 1012483.2090603287 71.8 34 12 53 4654
628743.5436332956 1012480.3306060998 72.8 34 12 56 4654
628749.8506727455 1012483.8897433407 98.1 34 13 00 4654
628747.106245285 1012483.0293322228 102.7 34 13 08 4654
628749.6314915263 1012490.4575672781 98.6 34 13 12 4654
628745.9766432252 1012499.2147774944 102.3 34 13 16 4654
628751.1499795511 1012496.5887223314 104.0 34 13 20 4654
628765.6968336166 1012510.8457973038 84.5 34 13 24 4654
628770.4867219749 1012511.2373697457 85.0 34 13 28 4654
628792.7388895592 1012518.0995301689 105.4 34 13 32 4654
628838.0498876648 1012523.6987812696 115.6 34 13 36 4654
628835.4848244347 1012541.9916587074 109.7 34 13 40 4654
628833.5502565014 1012538.778493766 90.2 34 13 44 4654
628835.7454211446 1012542.9545664763 89.3 34 13 48 4654
628844.4653975846 1012534.4350267816 106.8 34 13 52 4654
628839.4137316294 1012550.3091269532 95.7 34 13 56 4654
628828.134630921 1012551.6878256808 76.3 34 14 00 4654
628832.9007388875 1012559.3777061284 83.7 34 14 08 4654
628816.2087597678 1012532.3414541108 86.0 34 14 12 4654
628812.4712292601 1012522.6202278525 83.0 34 14 16 4654
628773.8636400371 1012449.4665106547 59.3 34 14 20 4654
628770.7227011207 1012459.0105210836 47.6 34 14 24 4654
628775.6969932357 1012460.1435894191 71.1 34 14 28 4654
628773.3123352495 1012453.4124732742 65.9 34 14 32 4654
628765.4046513468 1012455.4546006498 32.9 34 14 36 4654
628778.3820133157 1012462.3750189029 67.2 34 14 40 4654
628785.9623797868 1012462.9857831965 86.8 34 14 44 4654
628813.085418815 1012465.6285428359 95.1 34 14 48 4654
628818.9560658615 1012461.4676841937 100.0 34 14 52 4654
628825.6602851067 1012464.5415691657 98.2 34 14 56 4654
628820.7163673599 1012464.2047797575 100.0 34 15 00 4654
628856.7018945274 1012458.4390701947 150.8 34 15 08 4654
628772.6199743615 1012396.051624341 72.8 34 15 12 4654
628814.515433182 1012431.4414128946 61.2 34 15 16 4654
628825.7247868669 1012437.9911697299 88.2 34 15 20 4654
628820.8121876132 1012417.9156919615 82.1 34 15 24 4654
628811.5764521505 1012409.3376660546 12.4 34 15 28 4654
628818.4797447765 1012415.3978962387 48.2 34 15 32 4654
628817.4663471443 1012406.0172880199 48.1 34 15 36 4654
628831.1747182456 1012421.3000619762 79.3 34 15 40 4654
628757.8481142008 1012434.0214331002 42.1 34 15 44 4654
628778.9235465085 1012471.5550423438 114.4 34 15 48 4654
628769.5309296179 1012470.6619251615 61.9 34 15 52 4654
628774.1695494085 1012460.1386161646 77.5 34 15 56 4654
628761.8529084643 1012462.9183429264 72.2 34 16 00 4654
628767.4826642652 1012475.366025936 81.4 34 16 09 4654
628779.9368566384 1012470.8395623498 80.7 34 16 12 4654
628763.2525906 1012461.6622713316 82.3 34 16 16 4654
628737.7907597474 1012444.9368793281 73.5 34 16 20 4654
628727.7664724459 1012442.2945303953 93.7 34 16 24 4654
628721.9420681897 1012439.0023640298 94.9 34 16 28 4654
628701.6659898998 1012439.4671710491 92.9 34 16 32 4654
628707.19412941 1012442.6256724225 96.6 34 16 36 4654
628725.03701329 1012446.963241344 91.0 34 16 40 4654
628749.1846736907 1012469.0586044514 75.4 34 16 44 4654
628759.19143135 1012439.9529713228 67.6 34 16 48 4654
628757.6951958563 1012416.8586961 98.9 34 16 52 4654
628757.0174455268 1012425.8909932387 82.4 34 16 56 4654
628811.2538583605 1012440.9076215569 116.7 34 17 00 4654
628797.4162144926 1012445.075711081 76.8 34 17 08 4654
628799.9621471643 1012459.647579475 66.4 34 17 12 4654
628806.8618847921 1012480.2934914939 87.6 34 17 16 4654
628796.4873629058 1012494.0934451426 89.9 34 17 20 4654
628791.8403986658 1012493.6802189295 88.8 34 17 24 4654
628806.3261112142 1012516.5845816769 94.9 34 17 28 4654
628830.2604312741 1012540.0505217926 74.1 34 17 32 4654
628834.5436591862 1012581.2781901928 100.9 34 17 36 4654
628821.9921753386 1012581.9450229191 105.8 34 17 40 4654
628820.4878255858 1012574.8518503103 98.9 34 17 44 4654
628801.2126596698 1012581.7999316513 97.6 34 17 48 4654
628812.4846781992 1012569.097661247 99.4 34 17 52 4654
628861.5003871259 1012564.1153084917 109.9 34 17 56 4654
628898.4703812964 1012539.4876522431 97.0 34 18 00 4654
629029.9669046332 1012501.4340829132 101.0 35 06 08 4654
629033.8721865745 1012500.141961947 97.3 35 06 12 4654
629044.6011345314 1012495.6210080725 96.3 35 06 16 4654
629053.0318176365 1012488.2174370857 97.0 35 06 20 4654
629048.5951741781 1012490.7021032864 92.5 35 06 24 4654
629045.7418732346 1012489.5316869781 100.4 35 06 28 4654
629064.5164918761 1012487.8347039693 100.3 35 06 32 4654
629069.0220644382 1012477.6980208047 98.2 35 06 36 4654
629076.0807906797 1012513.5605397465 103.7 35 06 40 4654
629091.4930160646 1012528.627820362 91.8 35 06 44 4654
629138.4301660272 1012514.0958245473 104.1 35 06 48 4654
629136.2009681711 1012527.0818813134 83.1 35 06 52 4654
629138.7722510453 1012520.3890335261 108.8 35 06 56 4654
629147.190969727 1012530.114529267 86.2 35 07 00 4654
629135.3711392654 1012549.0074992252 92.5 35 07 08 4654
629134.2200718664 1012561.6210990867 85.5 35 07 12 4654
629138.241546812 1012565.1286088438 102.3 35 07 16 4654
629115.9123078791 1012541.5018244499 106.7 35 07 20 4654
629114.4687715534 1012525.8940516035 111.9 35 07 24 4654
629084.4864229163 1012527.3000879157 115.0 35 07 28 4654
629072.7556922534 1012532.3706687914 103.5 35 07 32 4654
629046.9393271438 1012519.9455196111 107.2 35 07 36 4654
629045.701975166 1012515.2307082245 112.3 35 07 40 4654
629034.4485830936 1012498.6178172234 104.7 35 07 44 4654
629026.788456476 1012488.7731852074 100.1 35 07 48 4654
629025.1763990328 1012484.3888971603 98.5 35 07 52 4654
629028.1798355178 1012493.4332072746 116.6 35 07 56 4654
629019.7681341639 1012468.0715355772 98.4 35 08 00 4654
629009.5201796717 1012459.8882477077 92.9 35 08 08 4654
629034.213377355 1012425.8765127098 85.6 35 08 12 4654
629036.9624430266 1012395.0000576513 96.0 35 08 16 4654
629049.4921648736 1012394.2889813974 91.2 35 08 20 4654
629047.7869626085 1012391.5078212599 86.4 35 08 24 4654
629029.5718861441 1012369.8849977475 78.3 35 08 28 4654
629021.6098962586 1012364.9823804669 82.4 35 08 32 4654
629035.7310965701 1012364.8625720107 104.0 35 08 36 4654
629026.0219165164 1012359.943196095 92.2 35 08 40 4654
629022.5702910067 1012353.5403247759 77.7 35 08 44 4654
629002.4965863049 1012355.9518787035 82.7 35 08 48 4654
628981.355516496 1012375.6549110526 85.4 35 08 52 4654
628967.5432679122 1012392.2413328146 87.6 35 08 56 4654
628970.2126438636 1012395.8992265499 86.6 35 09 00 4654
628932.5642509977 1012358.8975561364 99.9 35 09 08 4654
628929.8733643107 1012351.7231040865 109.2 35 09 12 4654
628886.720085618 1012344.8701739073 50.6 35 09 16 4654
628916.7776236356 1012310.311885249 102.2 35 09 20 4654
628890.5307037546 1012281.5746933594 84.8 35 09 24 4654
628869.3694337631 1012263.6357843567 81.0 35 09 28 4654
628863.6105134432 1012263.8492451564 89.5 35 09 32 4654
628846.2710691387 1012270.2396643502 60.0 35 09 36 4654
628855.4938837455 1012259.178384312 82.3 35 09 40 4654
628842.8478713902 1012265.2191746137 89.7 35 09 44 4654
628837.8802306006 1012272.1585689848 93.8 35 09 48 4654
628834.0021089398 1012278.6038955875 78.1 35 09 52 4654
628835.9543843125 1012283.1330355097 75.3 35 09 56 4654
628831.80330253 1012285.6628895947 89.0 35 10 00 4654
628833.4346635583 1012287.5038548409 90.5 35 10 08 4654
628821.853028737 1012290.6508827907 145.7 35 10 12 4654
628826.333270719 1012288.2769138074 70.4 35 10 16 4654
628830.6368366965 1012292.9132342311 54.2 35 10 20 4654
628817.4350398419 1012311.0277154417 75.3 35 10 24 4654
628819.722891524 1012317.1171459232 53.3 35 10 28 4654
628812.756124973 1012327.1684288773 82.8 35 10 32 4654
628843.5363856493 1012333.8593305936 21.4 35 10 36 4654
628793.4362212095 1012357.9466845999 93.9 35 10 40 4654
628785.1363551926 1012365.6824779547 60.6 35 10 44 4654
628759.5174051344 1012370.1992616965 82.0 35 10 48 4654
628735.9029635902 1012383.4585180101 142.0 35 10 52 4654
628736.2736800392 1012387.7281677049 131.6 35 10 56 4654
628730.1503624398 1012391.8661001236 129.6 35 11 00 4654
628759.113603225 1012386.2211972879 93.5 35 11 08 4654
628753.9108599988 1012391.125135027 88.5 35 11 12 4654
628738.9884573435 1012397.7003904298 88.3 35 11 16 4654
628754.9650150253 1012398.1173132148 91.3 35 11 20 4654
628775.4228701488 1012453.2092402097 71.2 35 11 24 4654
628763.7721348857 1012450.5947604425 83.4 35 11 28 4654
628756.4578198676 1012456.0226134444 65.0 35 11 32 4654
628789.1972036914 1012448.2336929011 76.3 35 11 36 4654
628769.5492067351 1012475.1737076255 77.6 35 11 40 4654
628793.4195822906 1012474.42207219 124.3 35 11 44 4654
628797.1854115776 1012465.3334818585 111.6 35 11 48 4654
628778.0268214484 1012470.2140870326 95.7 35 11 52 4654
628782.4786116732 1012466.4466969373 109.7 35 12 00 4654
628777.0038762018 1012463.7638579091 84.8 35 12 08 4654
628770.6207651391 1012470.0683336918 86.4 35 12 13 4654
628799.7372465978 1012454.4716349768 90.6 35 12 17 4654
628797.0570940258 1012454.1201045332 77.7 35 12 20 4654
628795.153791948 1012451.426777217 74.2 35 12 24 4654
628805.4125387068 1012446.1854498073 81.3 35 12 28 4654
628813.3361681789 1012429.1264197539 77.6 35 12 32 4654
628822.9483801348 1012419.9573483882 80.1 35 12 36 4654
628826.3579029551 1012419.050627263 64.7 35 12 40 4654
628825.4153460774 1012414.9118105923 42.9 35 12 44 4654
628804.7640398003 1012392.2417042569 123.1 35 12 48 4654
628823.4318443156 1012413.2245120461 69.6 35 12 52 4654
628825.1466763878 1012413.0531669615 46.9 35 12 56 4654
628843.2709502473 1012411.9732136211 115.1 35 13 04 4654
628840.6771564176 1012412.0974621767 120.8 35 13 12 4654
628843.4274975716 1012414.5170973472 72.5 35 13 17 4654
628881.7404053702 1012385.8575611368 133.8 35 13 20 4654
628863.2650545046 1012406.9958342457 88.1 35 13 21 4654
628852.4075562789 1012403.7535994333 106.1 35 13 24 4654
628798.2615676115 1012428.4470133558 75.3 35 13 28 4654
628775.9167618671 1012456.7715708574 107.9 35 13 32 4654
628780.0948973235 1012479.6755347179 75.3 35 13 36 4654
628774.2686301018 1012476.9583767726 80.5 35 13 40 4654
628767.9636282742 1012513.274911428 116.5 35 13 44 4654
628755.1853151446 1012468.8459178383 47.9 35 13 48 4654
628770.814849912 1012484.7099490191 93.7 35 13 52 4654
628776.7181805351 1012504.2578540299 75.2 35 13 56 4654
628775.8902044686 1012505.4273214077 90.6 35 14 00 4654
628786.9901668404 1012538.8148321641 63.1 35 14 08 4654
628833.9045304889 1012544.7178729307 101.4 35 14 12 4654
628829.1286965475 1012543.3863954847 105.4 35 14 16 4654
628857.563881492 1012568.249287315 109.8 35 14 20 4654
628849.3217218108 1012578.517567868 89.8 35 14 24 4654
628845.9023758132 1012589.1885979595 100.4 35 14 28 4654
628861.3338483701 1012601.7345868226 109.8 35 14 32 4654
628858.2659952048 1012615.8237294006 103.5 35 14 36 4654
628854.8691641783 1012633.074430521 88.9 35 14 40 4654
628858.4595337006 1012633.9928981587 99.4 35 14 44 4654
628869.821614773 1012644.2365960011 103.3 35 14 48 4654
628878.6398852925 1012652.7579939095 93.1 35 14 52 4654
628895.3758420546 1012669.6430474935 93.8 35 14 56 4654
628912.2638553019 1012707.2958133091 105.7 35 15 00 4654
628957.7422951602 1012728.8748087877 97.8 35 15 08 4654
628965.396888615 1012743.7729903542 103.6 35 15 12 4654
628983.0881349784 1012744.0186860408 103.4 35 15 16 4654
628991.1170826277 1012751.9514584364 97.2 35 15 20 4654
629015.4517988495 1012750.2947240352 99.0 35 15 24 4654
628996.5666281703 1012735.3930639523 98.2 35 15 28 4654
629052.0315231868 1012787.9897146587 146.7 35 15 32 4654
629042.5925900668 1012784.4755878146 136.9 35 15 33 4654
629049.629923977 1012776.3708116901 116.2 35 15 36 4654
629068.4926966226 1012794.7557489113 118.7 35 15 40 4654
629078.3569970416 1012822.8093229294 128.6 35 15 44 4654
629063.6158759631 1012827.7373697009 120.3 35 15 48 4654
629033.3242009216 1012829.7174294498 106.9 35 15 52 4654
629075.4010159831 1012836.2685083059 116.1 35 15 56 4654
629052.0374565914 1012850.1365745141 70.7 35 16 00 4654
629053.0578323747 1012877.5530763562 92.7 35 16 08 4654
629043.1125667396 1012857.4721750173 90.9 35 16 12 4654
629075.2384107792 1012859.147305663 99.5 35 16 16 4654
629057.2380924597 1012869.4389768132 69.1 35 16 20 4654
629056.9438310298 1012872.0587994662 80.5 35 16 24 4654
629047.6150444242 1012888.6708736388 77.7 35 16 28 4654
629054.3980379025 1012897.8823440811 91.5 35 16 32 4654
629026.5328988254 1012893.7551630612 69.4 35 16 36 4654
629058.1507682856 1012869.2539674998 88.9 35 16 40 4654
629065.7599748357 1012861.0073062183 124.1 35 16 44 4654
629062.3573324375 1012866.547393068 100.6 35 16 48 4654
629060.3554969128 1012863.754202444 90.7 35 16 52 4654
629062.6053796523 1012867.9857632784 93.3 35 16 56 4654
629070.1740900546 1012865.4118053337 107.4 35 17 00 4654
629102.7357022375 1012851.4189710411 93.6 35 17 09 4654
629096.2288349462 1012851.8732242053 86.0 35 17 12 4654
629108.604921207 1012857.7855206403 106.9 35 17 16 4654
629126.6795628145 1012841.5669397477 91.4 35 17 20 4654
629127.9337633507 1012817.56377185 98.7 35 17 24 4654
629133.2308578638 1012827.5113000114 106.1 35 17 28 4654
629146.4494480967 1012810.9893528854 104.3 35 17 32 4654
629162.0765415169 1012817.4209601573 91.3 35 17 36 4654
629173.1168270501 1012808.4003952242 90.7 35 17 40 4654
629204.2436298563 1012789.6258204432 93.4 35 17 44 4654
629183.4629703414 1012789.8564878578 92.8 35 17 48 4654
629176.9157800274 1012745.469754939 107.9 35 17 52 4654
629167.3904442211 1012721.3097306071 100.4 35 17 56 4654
629169.3789956443 1012714.7145049457 113.7 35 18 00 4654
629090.2816132565 1012734.7700289979 130.0 36 06 08 4654
629083.2645817328 1012726.5530258243 119.0 36 06 16 4654
629081.0079834687 1012717.6438424732 116.3 36 06 20 4654
629099.6788885107 1012740.9490461925 118.0 36 06 24 4654
629091.73921648 1012735.9690688387 121.7 36 06 28 4654
629080.6920828323 1012740.356266105 111.9 36 06 32 4654
629077.5258469847 1012757.6298295043 114.8 36 06 36 4654
629055.6327014978 1012718.2576765076 125.6 36 06 40 4654
629051.6191016621 1012725.808355606 117.2 36 06 44 4654
629053.4640574205 1012719.433821095 119.5 36 06 48 4654
629058.5745474704 1012712.4949208302 127.8 36 06 52 4654
629047.8845390117 1012708.468036559 79.7 36 06 56 4654
629044.249122752 1012711.2538854253 97.8 36 07 00 4654
629024.2639833079 1012696.6803683285 101.7 36 07 08 4654
628997.184752408 1012697.4987864245 92.4 36 07 12 4654
628976.1735126321 1012697.6624676657 105.0 36 07 16 4654
628964.673708037 1012706.0733880799 101.0 36 07 20 4654
628961.1949010465 1012691.1667102929 94.2 36 07 24 4654
628959.6420977073 1012692.2011123599 106.1 36 07 28 4654
628925.3783627163 1012705.823604826 101.9 36 07 32 4654
628900.4100383571 1012702.9555485557 94.5 36 07 36 4654
628877.5425060394 1012669.1536530191 96.0 36 07 40 4654
628849.3551766806 1012662.6812429586 97.0 36 07 44 4654
628825.3598823035 1012641.0949651944 113.5 36 07 48 4654
628835.9178386547 1012608.0876168171 98.4 36 07 52 4654
628818.2383995646 1012567.0927620438 103.8 36 07 56 4654
628803.7448084084 1012560.1120959079 117.6 36 08 00 4654
628793.2369814367 1012537.2428023923 91.0 36 08 08 4654
628800.3123851987 1012534.313320149 97.1 36 08 12 4654
628789.7456288063 1012526.1622287333 88.3 36 08 16 4654
628797.3976417951 1012525.0149849757 94.3 36 08 20 4654
628792.9518029244 1012530.3305326115 83.7 36 08 24 4654
628785.9225869558 1012532.5745615779 92.3 36 08 28 4654
628780.81157157 1012529.561160796 91.0 36 08 32 4654
628776.1965534987 1012539.5869288844 76.1 36 08 36 4654
628770.4999854112 1012547.6629420817 78.5 36 08 40 4654
628758.0240840389 1012548.7391937766 102.4 36 08 44 4654
628755.078059732 1012569.2977509365 67.2 36 08 48 4654
628707.5938568665 1012552.7881878195 55.8 36 08 52 4654
628735.2535376112 1012562.7199647787 96.3 36 08 56 4654
628715.0655469951 1012586.7831209274 98.1 36 09 00 4654
628677.1009182729 1012623.3283691662 100.2 36 09 08 4654
628667.3298909514 1012613.7865737176 126.8 36 09 12 4654
628641.9968458224 1012621.6770747774 96.9 36 09 16 4654
628645.1270196568 1012628.9413980774 101.4 36 09 20 4654
628630.1650322445 1012617.3148536178 88.8 36 09 24 4654
628647.491555455 1012675.6365621944 116.1 36 09 28 4654
628659.1516278076 1012719.2656938575 103.8 36 09 32 4654
628665.6146892353 1012762.6678163026 93.5 36 09 36 4654
628682.3955749231 1012782.6381431316 100.6 36 09 40 4654
628689.7714591087 1012785.2829297018 82.4 36 09 44 4654
628661.6695918128 1012806.6000362596 176.8 36 09 48 4654
628696.7717255898 1012781.7892254171 71.0 36 09 52 4654
628692.6436879165 1012784.0095338158 95.3 36 09 56 4654
628694.6441661855 1012770.3481798711 79.7 36 10 00 4654
628619.5142236941 1012743.1107881294 96.5 36 10 08 4654
628592.4945474041 1012749.2928694658 108.0 36 10 12 4654
628570.3201035374 1012715.1838073857 95.3 36 10 16 4654
628561.8759657468 1012682.8334132096 106.9 36 10 20 4654
628560.1895139837 1012674.2799893785 105.7 36 10 24 4654
628561.08680624 1012658.5471762064 98.7 36 10 28 4654
628557.96048999 1012673.7530099445 148.0 36 10 32 4654
628551.6321717444 1012639.562790778 110.7 36 10 36 4654
628551.8967266553 1012629.1690015164 100.3 36 10 40 4654
628551.0298463503 1012615.2661046555 108.9 36 10 44 4654
628554.6603769347 1012613.9730466469 114.6 36 10 48 4654
628562.687787693 1012598.7499715062 116.3 36 10 52 4654
628568.3414854149 1012603.8440375195 105.3 36 10 56 4654
628571.8406220936 1012592.2664853041 102.2 36 11 00 4654
628600.5922178347 1012550.2726969705 96.9 36 11 08 4654
628613.1380536737 1012527.6885429118 92.8 36 11 12 4654
628633.7047140178 1012518.9531530064 91.4 36 11 16 4654
628637.6075793683 1012494.748521044 93.6 36 11 20 4654
628641.3577942975 1012483.6915209726 95.8 36 11 24 4654
628629.2998642513 1012474.5072214443 71.9 36 11 28 4654
628676.4729990306 1012481.9590438695 124.3 36 11 32 4654
628680.6084557947 1012480.8445684412 95.0 36 11 36 4654
628708.8215107864 1012459.196065212 104.9 36 11 40 4654
628715.5821340702 1012475.3297802587 122.4 36 11 44 4654
628760.0840806854 1012452.6727429368 102.7 36 11 48 4654
628766.4213817116 1012453.6886077225 69.8 36 11 52 4654
628784.4036124664 1012455.7265644409 73.3 36 11 56 4654
628794.1299361257 1012438.5075294978 88.8 36 12 00 4654
628819.6543640534 1012419.1393752067 93.2 36 12 08 4654
628812.079635218 1012437.0399598987 86.0 36 12 12 4654
628804.8226512794 1012431.6088928685 99.0 36 12 16 4654
628817.8516069085 1012436.1851649177 125.5 36 12 20 4654
628806.9080511654 1012439.1241651163 97.9 36 12 24 4654
628814.024389359 1012427.0054971556 60.8 36 12 28 4654
628807.1144257495 1012439.8657329713 66.8 36 12 32 4654
628799.0695109871 1012446.9278052809 64.9 36 12 36 4654
628798.1663040455 1012447.5772945763 68.6 36 12 48 4654
628798.9660023674 1012448.3429108193 82.8 36 12 52 4654
628798.686816858 1012449.7132116845 89.1 36 12 57 4654
628795.6328945366 1012446.0319624661 105.6 36 13 00 4654
628791.7654881205 1012449.1930564564 73.8 36 13 08 4654
628807.1820201826 1012442.7300128372 112.9 36 13 12 4654
628799.7761325431 1012439.1562301652 88.8 36 13 16 4654
628795.8807640154 1012440.7801506199 67.6 36 13 20 4654
628792.9473089218 1012430.4754651048 51.5 36 13 24 4654
628792.5076483635 1012430.5072078799 70.4 36 13 28 4654
628808.0921732386 1012412.9533907215 71.4 36 13 32 4654
628826.4625577364 1012410.536195535 94.3 36 13 36 4654
628826.318874691 1012410.7900649118 97.3 36 13 40 4654
628826.4232897228 1012382.1055739429 15.2 36 13 44 4654
628836.9504750671 1012419.2841763686 93.1 36 13 48 4654
628832.7085266474 1012405.8568273757 74.4 36 13 52 4654
628838.8878569627 1012418.2620795361 78.1 36 13 56 4654
628827.2704683107 1012408.780581716 52.0 36 14 00 4654
628810.7587008546 1012407.3666529764 46.0 36 14 08 4654
628816.849501133 1012409.8413975243 56.1 36 14 12 4654
628813.2437907599 1012379.8841961114 82.0 36 14 16 4654
628821.599603803 1012365.0934934603 45.2 36 14 20 4654
628827.1801491706 1012352.162579683 59.8 36 14 24 4654
628829.0803616754 1012359.1796330919 64.6 36 14 28 4654
628840.1597961078 1012385.3792946349 150.0 36 14 32 4654
628820.8401980286 1012348.5812086986 61.0 36 14 36 4654
628809.013220782 1012329.213055451 77.0 36 14 40 4654
628814.2966155593 1012326.5431311617 73.1 36 14 44 4654
628810.2463416887 1012325.1144991113 80.9 36 14 48 4654
628801.222212483 1012315.6635747531 40.6 36 14 52 4654
628829.5442849571 1012287.5907079763 66.7 36 14 56 4654
628802.8228339377 1012296.5713705964 52.3 36 15 00 4654
628834.4159623766 1012269.6260291084 57.0 36 15 08 4654
628837.9766770195 1012269.5381025379 54.4 36 15 12 4654
628828.5398494966 1012251.8364524201 60.8 36 15 16 4654
628860.0332902827 1012255.510808029 91.3 36 15 20 4654
628847.6294162051 1012251.3125424879 83.3 36 15 24 4654
628851.1189835577 1012259.5732855528 84.0 36 15 28 4654
628862.2705655835 1012277.1257144621 82.5 36 15 32 4654
628867.487609321 1012281.333747238 93.5 36 15 36 4654
628881.1168556552 1012283.8109418491 87.9 36 15 40 4654
628891.37897229 1012274.1795563716 89.8 36 15 44 4654
628892.425290202 1012286.9440682034 53.7 36 15 48 4654
628898.3195730688 1012272.1674720763 59.8 36 15 52 4654
628898.6587864821 1012272.6109033044 49.3 36 15 56 4654
628900.5961039047 1012274.9836596944 61.1 36 16 00 4654
628836.8419203032 1012280.5483200008 79.9 36 16 08 4654
628812.5281201433 1012299.3232768835 60.7 36 16 12 4654
628824.8929025629 1012288.526560376 63.7 36 16 16 4654
628804.1950512612 1012286.8778457675 68.7 36 16 20 4654
628794.5200512267 1012295.073603548 65.2 36 16 24 4654
628786.8621625444 1012298.0122536898 82.4 36 16 28 4654
628777.8195182879 1012307.7471555648 75.7 36 16 32 4654
628794.1740344937 1012313.5948689017 71.0 36 16 36 4654
628761.6154729035 1012343.4453840642 70.7 36 16 40 4654
628771.723879749 1012360.7621693069 113.3 36 16 44 4654
628772.9489409254 1012362.5133442968 114.9 36 16 48 4654
628764.4765990223 1012379.3494321699 89.9 36 16 52 4654
628772.7512642081 1012396.228982084 94.4 36 16 56 4654
628763.0043775153 1012402.887427683 56.3 36 17 00 4654
628830.7621592409 1012429.8798398243 127.6 36 17 08 4654
628787.0011078782 1012471.3380650888 81.6 36 17 16 4654
628801.3121293711 1012470.2788537282 103.3 36 17 20 4654
628827.8117488904 1012509.1239663289 91.2 36 17 24 4654
628836.1177011139 1012529.8739910544 93.4 36 17 28 4654
628832.8172788855 1012524.2788750995 98.3 36 17 32 4654
628832.3680353619 1012523.8793183494 109.6 36 17 36 4654
628844.591929582 1012529.3265748479 85.3 36 17 40 4654
628856.6933581992 1012542.0054653558 104.0 36 17 44 4654
628853.227673296 1012573.6425929703 89.5 36 17 48 4654
628855.4136089192 1012584.0222584415 95.4 36 17 52 4654
628860.4418547766 1012585.4540856566 86.8 36 17 56 4654
628870.5961548671 1012602.140746937 93.0 36 18 00 4654
629085.1604984629 1012580.0165195394 124.0 37 06 08 4654
629053.3757582016 1012551.1947523076 115.0 37 06 12 4654
629047.3797765102 1012549.9809055192 110.2 37 06 16 4654
629053.1726365967 1012549.4579591012 104.7 37 06 20 4654
629047.6190088784 1012564.2245898498 69.7 37 06 24 4654
629091.8696431236 1012561.3722513429 97.5 37 06 28 4654
629117.4762772657 1012537.0504930976 109.6 37 06 32 4654
629121.8348634187 1012521.4506049518 109.4 37 06 36 4654
629153.757571509 1012565.2235114889 77.9 37 06 40 4654
629195.6778682016 1012555.8614794338 86.8 37 06 44 4654
629212.050085851 1012579.7895386482 106.3 37 06 48 4654
629202.7834519267 1012614.338131259 98.3 37 06 52 4654
629210.4820096786 1012652.7572214234 99.0 37 06 56 4654
629228.1714639016 1012697.2798973704 111.2 37 07 00 4654
629247.0532242068 1012760.2736175884 106.4 37 07 08 4654
629229.9124646324 1012779.8790042374 102.4 37 07 12 4654
629229.7229441936 1012777.3460654931 105.3 37 07 16 4654
629224.7571280526 1012790.444816188 94.4 37 07 20 4654
629201.7131799088 1012783.8230745115 103.1 37 07 24 4654
629189.1346789678 1012769.2294323046 76.6 37 07 28 4654
629183.5953659175 1012759.4248608489 97.8 37 07 32 4654
629117.4829593997 1012720.1072619492 82.7 37 07 36 4654
629117.1614490587 1012757.9914633717 97.8 37 07 40 4654
629095.9826833346 1012765.7183098638 88.5 37 07 44 4654
629088.3070843007 1012764.0013512708 125.1 37 07 48 4654
629081.0098590102 1012767.5603706023 106.2 37 07 52 4654
629068.3509729858 1012740.548200784 111.3 37 07 56 4654
629032.3550475969 1012732.7231824232 119.7 37 08 00 4654
629040.6011086465 1012765.0399080407 101.3 37 08 08 4654
629004.1286063596 1012775.3044987102 117.2 37 08 12 4654
628999.5757754854 1012799.9382707732 108.9 37 08 16 4654
628976.6009372203 1012805.8126036577 129.3 37 08 20 4654
628964.0704435954 1012827.0144419527 99.7 37 08 24 4654
628944.8781529414 1012855.7472731816 102.8 37 08 28 4654
628958.6826621158 1012875.1772425048 121.8 37 08 32 4654
628958.2483188609 1012880.3178671332 77.0 37 08 36 4654
628977.526038926 1012875.9243184632 98.9 37 08 40 4654
628993.4922103947 1012892.9396196189 145.6 37 08 44 4654
628978.4059059416 1012889.1637997355 110.3 37 08 48 4654
628954.0259660885 1012887.8678712721 112.8 37 08 52 4654
628915.8938918208 1012881.4071870013 70.8 37 08 56 4654
628920.5446712343 1012867.1573365207 116.5 37 09 00 4654
628881.9098590675 1012846.3636856636 88.9 37 09 08 4654
628920.8566647859 1012859.0969609846 150.7 37 09 12 4654
628932.479787176 1012836.4435359151 147.5 37 09 16 4654
628925.9672386046 1012808.3124753708 108.4 37 09 20 4654
628888.766143057 1012836.4779338707 125.0 37 09 24 4654
628884.1938028946 1012833.4109785254 108.5 37 09 28 4654
628868.1704520617 1012820.4317695717 148.0 37 09 32 4654
628838.7025630826 1012812.4180962583 98.4 37 09 36 4654
628835.4510599626 1012808.6809045874 117.7 37 09 40 4654
628829.676910961 1012796.7303470861 163.0 37 09 44 4654
628831.4322995933 1012780.734926012 105.9 37 09 48 4654
628813.9945352047 1012763.4052836256 77.8 37 09 52 4654
628774.6534693479 1012790.7123946741 214.9 37 09 56 4654
628754.77328204 1012777.6432704035 85.8 37 10 00 4654
628773.7480809906 1012768.4162227289 138.5 37 10 08 4654
628751.3880842054 1012744.0928915854 113.7 37 10 12 4654
628742.3299546068 1012745.113920723 45.2 37 10 16 4654
628690.0059983663 1012794.2518473967 131.9 37 10 20 4654
628740.8078283449 1012767.1036151648 43.7 37 10 24 4654
628723.2105769548 1012785.2480270346 85.8 37 10 28 4654
628710.7986332576 1012786.9548063393 114.1 37 10 32 4654
628696.4717443273 1012779.4218062479 99.7 37 10 36 4654
628692.7845146835 1012781.2565144707 105.3 37 10 40 4654
628691.9165503749 1012781.2094567645 106.1 37 10 44 4654
628689.3912700595 1012780.5488068946 98.6 37 10 48 4654
628687.7881925623 1012763.2707694774 103.4 37 10 52 4654
628675.370526678 1012729.5914854895 103.9 37 10 56 4654
628647.4198424938 1012687.5459470237 27.1 37 11 00 4654
628655.7941386781 1012690.6805310776 122.1 37 11 08 4654
628636.4173686242 1012678.2213141941 111.9 37 11 12 4654
628640.5956852138 1012663.9256726799 114.7 37 11 16 4654
628654.1525098886 1012654.8468114645 96.1 37 11 20 4654
628650.8222121053 1012634.7875664689 110.5 37 11 24 4654
628649.8384507414 1012612.911362995 123.9 37 11 28 4654
628687.1674567375 1012589.3352231111 93.1 37 11 32 4654
628713.4336571579 1012574.9787707631 126.5 37 11 36 4654
628701.463983809 1012579.2082572917 95.1 37 11 40 4654
628714.1820680179 1012581.3728133712 104.6 37 11 44 4654
628731.0694003664 1012572.0394177586 109.6 37 11 48 4654
628752.6282525116 1012542.0756816996 102.5 37 11 52 4654
628747.6967372752 1012554.8096669744 101.0 37 11 56 4654
628754.433625059 1012544.4701185584 112.1 37 12 00 4654
628765.1952416655 1012543.3993420396 88.4 37 12 08 4654
628776.2233754842 1012548.223427579 99.2 37 12 12 4654
628771.3507315324 1012529.3755404865 91.7 37 12 16 4654
628771.1304877553 1012529.518579242 91.8 37 12 20 4654
628783.4653722048 1012524.5051719269 102.0 37 12 24 4654
628797.1418703059 1012498.9501025418 103.6 37 12 28 4654
628791.280156556 1012456.5009100239 81.0 37 12 32 4654
628831.0999639253 1012427.3817990343 89.7 37 12 36 4654
628835.7525743294 1012405.8225100263 74.2 37 12 40 4654
628829.9535054198 1012408.2474715242 103.6 37 12 44 4654
628824.468967354 1012408.5724104504 95.4 37 12 48 4654
628825.2864942095 1012403.8643029006 97.9 37 12 52 4654
628850.0317371028 1012404.4314648986 93.9 37 13 00 4654
628837.1677218268 1012409.9407501287 76.5 37 13 04 4654
628844.7670442604 1012401.3622662044 114.5 37 13 08 4654
628840.718374113 1012412.9380155929 80.7 37 13 12 4654
628836.5149063205 1012401.1916297748 84.5 37 13 16 4654
628832.958460103 1012406.7201768842 83.3 37 13 20 4654
628833.4924332442 1012394.6021876961 98.9 37 13 24 4654
628834.9615468611 1012392.2737040237 86.3 37 13 28 4654
628831.013319925 1012362.8904076699 81.6 37 13 32 4654
628833.3102308782 1012356.0750126634 113.3 37 13 36 4654
628813.2169419144 1012330.7638267222 86.9 37 13 40 4654
628823.3753447141 1012325.9755571376 76.3 37 13 44 4654
628821.855122816 1012293.382251518 63.1 37 13 48 4654
628821.1239001862 1012285.0862612445 54.3 37 13 52 4654
628821.1570905161 1012268.1452907858 86.9 37 13 56 4654
628814.0218640033 1012269.1836376726 77.8 37 14 00 4654
628817.8820623074 1012274.9906758525 65.2 37 14 08 4654
628802.0873290473 1012259.214563328 89.4 37 14 12 4654
628806.0153141379 1012254.3285948328 91.2 37 14 16 4654
628809.1190772532 1012256.2075274035 80.3 37 14 20 4654
628815.7224706216 1012249.7600146739 72.1 37 14 24 4654
628789.7094002358 1012243.6707453321 68.7 37 14 28 4654
628785.1814203559 1012233.7036749331 61.3 37 14 32 4654
628777.9452182088 1012228.6265469369 64.9 37 14 36 4654
628770.3431166521 1012227.9272541803 59.8 37 14 40 4654
628777.9771169339 1012208.6998764102 81.5 37 14 44 4654
628760.8608919177 1012180.2689696247 48.4 37 14 48 4654
628786.3861641599 1012170.8088762048 54.0 37 14 52 4654
628795.0453607955 1012167.4753895382 86.7 37 14 56 4654
628788.5113410519 1012182.9908103178 97.1 37 15 00 4654
628782.7065276259 1012177.0447491055 54.9 37 15 08 4654
628796.1952336661 1012182.1975223306 79.6 37 15 12 4654
628793.4000249681 1012169.924941099 69.1 37 15 16 4654
628810.7597851559 1012164.0542934163 87.7 37 15 21 4654
