627336.8453153768 1012667.9440843153 146.1 16 02 00 4656
627280.4088101804 1012711.6961850704 151.1 16 02 08 4656
627293.9105761179 1012695.705414616 164.1 16 02 12 4656
627262.6754973554 1012738.2006425161 140.2 16 02 16 4656
627245.2009654355 1012728.6897347736 164.8 16 02 20 4656
627221.5868641315 1012731.853768971 166.0 16 02 24 4656
627178.8473383079 1012767.3012058112 173.7 16 02 28 4656
627121.2537394294 1012777.9971509342 173.5 16 02 32 4656
627110.9137562796 1012801.7830264022 197.2 16 02 36 4656
627111.6071045462 1012798.0365640784 166.2 16 02 40 4656
627113.9207622373 1012792.7471789011 161.4 16 02 44 4656
627107.5278723587 1012809.0373039738 163.2 16 02 48 4656
627102.7595684397 1012798.527850488 161.0 16 02 52 4656
627109.6003795859 1012800.1422071151 164.4 16 02 56 4656
627102.97016582 1012797.9645650969 165.5 16 03 00 4656
627055.6092793169 1012808.0078937602 164.3 16 03 08 4656
627048.8004400814 1012793.0244250726 161.3 16 03 12 4656
627042.8341612741 1012789.4113762337 169.0 16 03 16 4656
627043.4751629042 1012788.2744532292 153.6 16 03 20 4656
627033.6657824419 1012776.8973405911 163.2 16 03 24 4656
627018.9817883687 1012781.2512817088 173.6 16 03 28 4656
627032.5736880195 1012781.6266916682 172.1 16 03 32 4656
627023.4812169722 1012776.267482992 182.9 16 03 36 4656
627023.895066812 1012780.8468591534 181.4 16 03 40 4656
627030.0359944192 1012784.8253826251 178.3 16 03 44 4656
627027.3882757261 1012777.8060508639 179.1 16 03 48 4656
627029.4306236983 1012785.1330639956 180.3 16 03 52 4656
627027.8671795623 1012786.0790361013 185.5 16 03 56 4656
627025.5218604812 1012784.1252783526 173.8 16 04 00 4656
627015.4052419505 1012779.44838243 179.7 16 04 08 4656
627019.9240289778 1012788.9617929116 168.7 16 04 12 4656
627031.3436337453 1012781.4126360186 168.2 16 04 16 4656
627028.3423099725 1012781.8453165401 170.9 16 04 20 4656
627044.2166706666 1012790.057187446 167.7 16 04 24 4656
627046.2016991134 1012787.86300709 168.8 16 04 28 4656
627057.2571969591 1012828.647576087 169.5 16 04 32 4656
627067.4493175462 1012844.0178963535 173.6 16 04 36 4656
627070.0502967215 1012851.8996129561 178.3 16 04 40 4656
627076.0063269188 1012858.6973633183 174.2 16 04 44 4656
627089.8741041904 1012868.9596124211 157.2 16 04 48 4656
627111.9519099855 1012878.7727660472 143.9 16 04 52 4656
627136.1264341082 1012868.7434080268 164.2 16 04 56 4656
627173.4769663505 1012841.4837093812 143.0 16 05 00 4656
627197.6447049611 1012857.4851065689 166.4 16 05 08 4656
627203.4443120839 1012865.0785582843 145.1 16 05 12 4656
627202.2956693226 1012860.0544894837 153.4 16 05 16 4656
627204.8034983376 1012859.3106082832 156.9 16 05 20 4656
627235.4988927096 1012844.4699020272 157.8 16 05 24 4656
627138.0365998566 1012821.4872827196 156.7 16 19 00 4656
627105.8687430501 1012822.6555328551 161.7 16 19 08 4656
627103.2823510345 1012817.0739422567 176.5 16 19 16 4656
627105.0194586692 1012796.29032398 171.6 16 19 20 4656
627106.6304497945 1012794.2276408443 173.3 16 19 24 4656
627102.4449856109 1012797.255159238 183.6 16 19 28 4656
627116.7990218049 1012810.0844549953 168.9 16 20 00 4656
627154.3918246393 1012854.4266353121 170.2 16 20 12 4656
627224.981380044 1012858.524063428 168.2 16 20 16 4656
627253.5164611244 1012845.7111072468 159.3 16 20 24 4656
627256.4356773423 1012843.4757107776 160.7 16 20 28 4656
627286.1084516918 1012818.6131159181 170.0 16 20 32 4656
627315.6198596958 1012799.5112862516 157.4 16 20 36 4656
627370.7051167611 1012762.4450398545 138.2 16 20 40 4656
627417.5960720798 1012755.0655585225 150.5 16 20 44 4656
627434.7372638425 1012683.8734763198 147.6 16 20 48 4656
627440.5802087826 1012681.4263514492 147.8 16 20 52 4656
627441.0204099782 1012684.6346185805 144.2 16 20 56 4656
627450.2260034006 1012682.1651585402 135.8 16 21 00 4656
627506.9141963538 1012662.6755543876 103.3 16 21 08 4656
627515.8997357493 1012656.8879687662 128.3 16 21 12 4656
627523.2535337546 1012656.1818489273 134.1 16 21 16 4656
627517.3749812498 1012642.4066144831 125.4 16 21 20 4656
627486.8693987194 1012628.9611279758 124.7 16 21 24 4656
627429.7050243223 1012622.2968309373 117.7 16 21 28 4656
627426.9536908115 1012626.9876562479 131.2 16 21 32 4656
627429.2037618462 1012624.3962541051 143.8 16 21 36 4656
627414.3686176485 1012634.6988298806 142.5 16 21 40 4656
627439.1023771453 1012672.8515627384 146.3 16 21 44 4656
627435.8081810974 1012689.1405821934 145.4 16 21 48 4656
627392.9049531395 1012693.4587486796 148.7 16 21 52 4656
627366.1732624694 1012709.2520596999 144.0 16 21 56 4656
627334.632980756 1012696.3562619493 145.1 16 22 00 4656
627245.8969304825 1012737.7927835641 161.3 16 22 08 4656
627238.6699265989 1012777.6450029374 163.0 16 22 12 4656
627198.5250294078 1012840.0272144924 144.6 16 22 16 4656
627213.9500646286 1012878.5811167976 174.6 16 22 20 4656
627211.3929677866 1012887.8063944302 171.1 16 22 24 4656
627210.1252188574 1012889.062937451 164.7 16 22 28 4656
627215.0521820011 1012887.8181691916 173.3 16 22 32 4656
627214.4637709855 1012889.6850931317 176.3 16 22 36 4656
627213.3119509032 1012892.4790837434 168.0 16 22 40 4656
627210.8433583151 1012887.8599163594 167.3 16 22 44 4656
627207.2904130085 1012882.142509127 171.9 16 22 48 4656
627206.0648751467 1012883.9410345441 171.9 16 23 00 4656
627150.9380243408 1012930.6278747153 133.6 16 23 44 4656
627195.5758249728 1012902.8166203512 158.1 16 23 56 4656
627214.2615052272 1012884.2438615151 169.6 17 00 00 4656
627214.5042223769 1012880.5291239882 184.3 17 00 08 4656
627217.2264076858 1012884.8837134378 183.5 17 00 12 4656
627215.7216477689 1012881.2518174095 177.2 17 00 16 4656
627211.0501852868 1012888.46877688 164.9 17 00 28 4656
627222.6705984646 1012893.6481830358 165.1 17 00 32 4656
627234.0981960808 1012897.2788396064 153.6 17 00 36 4656
627241.2958107603 1012887.0400957135 167.9 17 00 40 4656
627244.7952595841 1012868.4074159012 166.7 17 00 44 4656
627237.2461307286 1012841.0475167617 167.8 17 00 52 4656
627244.3273381579 1012839.6659291564 181.2 17 00 56 4656
627227.5110737673 1012844.156685569 160.3 17 01 00 4656
627234.3143283481 1012826.7067950427 200.2 17 01 08 4656
627236.4625395595 1012818.198978052 156.8 17 01 12 4656
627234.7962932904 1012813.5271012464 169.0 17 01 16 4656
627241.3694213531 1012816.3680684048 155.7 17 01 20 4656
627227.1084354203 1012812.19750662 151.3 17 01 24 4656
627230.1569748083 1012800.5078564176 161.5 17 01 28 4656
627235.0207083437 1012788.1826783831 153.4 17 01 32 4656
627242.8162034398 1012779.9694874934 157.2 17 01 36 4656
627249.3991652654 1012762.6847602895 163.0 17 01 40 4656
627244.2067569504 1012761.0425102225 159.1 17 01 44 4656
627250.7989501138 1012751.1335596612 153.7 17 01 48 4656
627242.6191089749 1012752.4342058831 163.9 17 01 52 4656
627245.0218275612 1012750.2082038104 169.7 17 01 56 4656
627245.3939477144 1012750.6738412037 164.8 17 02 00 4656
627237.5900554368 1012741.0060720672 145.4 17 02 08 4656
627244.3071063085 1012764.0064016448 159.5 17 02 20 4656
627181.3277149458 1012771.677129422 166.0 17 02 24 4656
627134.3363220063 1012772.7313336866 170.9 17 02 28 4656
627112.5362662124 1012796.1375603916 173.4 17 02 32 4656
627105.4020746351 1012800.3277556176 176.2 17 02 36 4656
627100.7815000974 1012795.1377170895 175.1 17 02 40 4656
627102.4234348887 1012797.1223929203 173.7 17 02 44 4656
627102.1836668113 1012789.6684718736 169.8 17 02 48 4656
627097.2257574021 1012790.2828448394 183.7 17 02 52 4656
627098.1037477923 1012790.6284679031 181.7 17 02 56 4656
627093.5170456248 1012798.8298816867 180.9 17 03 00 4656
627081.455941055 1012835.0174019702 169.3 17 03 24 4656
627070.964118034 1012844.5157488841 178.6 17 03 28 4656
627070.6762517428 1012848.6063153278 180.4 17 03 32 4656
627067.1737618664 1012851.116301598 180.9 17 03 36 4656
627075.0518440616 1012858.2187976688 173.3 17 03 40 4656
627080.9242074016 1012850.0215154354 177.9 17 03 44 4656
627075.9348982305 1012846.7322848609 178.9 17 03 48 4656
627069.0253097384 1012859.6812108184 176.2 17 03 52 4656
627056.5988533505 1012835.180788619 171.7 17 03 56 4656
627049.55179457 1012836.197602027 177.3 17 04 00 4656
627036.8542023604 1012827.6752492595 183.2 17 04 16 4656
627056.4745475897 1012812.312269416 171.6 17 04 20 4656
627040.2613501542 1012786.4395427654 164.5 17 04 24 4656
627025.0897721992 1012792.063594222 166.7 17 04 28 4656
627028.734860264 1012775.9526191084 175.8 17 04 32 4656
627030.3084974937 1012782.0949114425 187.5 17 04 36 4656
627035.7826593971 1012781.54853732 181.1 17 04 40 4656
627025.7387094371 1012781.6157900492 184.1 17 04 44 4656
627024.0508152485 1012776.8332751945 183.4 17 04 48 4656
627022.9970411338 1012776.4760310792 186.8 17 04 52 4656
627032.0462429872 1012785.0419449453 186.8 17 04 56 4656
627028.151047787 1012790.0719163584 182.9 17 05 00 4656
627057.5417533062 1012808.4896016486 169.1 17 05 08 4656
627117.5231349732 1012810.4406419204 159.5 17 05 12 4656
627157.3783264575 1012821.0186968413 167.5 17 05 16 4656
627161.684473357 1012859.0502559035 159.5 17 05 20 4656
627202.6984420121 1012861.2390010686 158.7 17 05 24 4656
627210.9886127368 1012835.887357469 154.3 17 05 28 4656
627231.9528941351 1012799.0318514925 151.7 17 05 32 4656
627246.6083549827 1012735.2627701628 158.2 17 05 36 4656
627235.830642397 1012731.1365932852 155.9 17 06 04 4656
627248.9923516265 1012755.9269571292 162.0 17 19 08 4656
627251.8770415913 1012754.1780045235 164.9 17 19 12 4656
627279.5394543831 1012759.8734954059 155.4 17 19 16 4656
627286.8593562834 1012762.8606284792 143.7 17 19 20 4656
627283.5118705567 1012761.5892294985 148.1 17 19 24 4656
627298.516681787 1012777.0635761189 150.4 17 19 28 4656
627307.3371793616 1012791.7992405376 149.7 17 19 32 4656
627315.9757484832 1012794.7795679971 151.2 17 19 36 4656
627314.431666983 1012789.709988821 164.2 17 19 40 4656
627357.423216112 1012792.0490094775 152.4 17 19 44 4656
627375.8425592807 1012767.5040818226 145.3 17 19 48 4656
627391.1531825503 1012763.0859378844 150.5 17 19 52 4656
627419.5234278624 1012760.5455279181 146.3 17 19 56 4656
627427.9699404589 1012761.7449072987 152.8 17 20 00 4656
627424.5286664886 1012752.0690392747 149.3 17 20 08 4656
627423.9361146045 1012796.1336494321 156.2 17 20 12 4656
627414.1834135848 1012746.7388719167 170.8 17 20 16 4656
627423.7978214424 1012716.2937382642 154.3 17 20 20 4656
627430.6508632457 1012703.886521721 144.0 17 20 24 4656
627425.0709866208 1012709.9504932258 145.4 17 20 28 4656
627443.1145223484 1012689.5179890614 146.4 17 20 32 4656
627437.7735179941 1012689.6555886784 154.1 17 20 36 4656
627428.9408809952 1012705.9709913741 165.9 17 20 40 4656
627424.8291216419 1012689.5254078353 158.0 17 20 44 4656
627423.4912492777 1012671.6180370135 148.4 17 20 48 4656
627427.2983013226 1012635.9900577893 132.1 17 20 52 4656
627445.6146379409 1012640.0300004976 102.1 17 20 56 4656
627430.4602165957 1012623.2392027789 137.5 17 21 00 4656
627427.5821717074 1012622.920301734 138.0 17 21 08 4656
627440.5620882055 1012632.4942104976 98.7 17 21 12 4656
627433.2384814012 1012617.011388901 141.2 17 21 16 4656
627433.6543039273 1012644.834901855 139.9 17 21 20 4656
627433.451045021 1012653.3489818667 140.5 17 21 24 4656
627431.3108621056 1012655.9407377568 144.9 17 21 28 4656
627436.4542272448 1012648.9354211545 132.4 17 21 32 4656
627419.6837592258 1012659.6409067141 151.3 17 21 36 4656
627422.0511323661 1012664.9785380339 151.5 17 21 40 4656
627422.1634476207 1012674.4556892292 157.2 17 21 44 4656
627444.6472256455 1012687.8863304947 150.0 17 21 48 4656
627439.1137463687 1012679.5528066516 158.3 17 21 52 4656
627434.6202726678 1012682.6677666352 157.2 17 21 56 4656
627448.0173222388 1012685.5528757926 149.2 17 22 00 4656
627440.7005735276 1012688.4043991592 154.7 17 22 08 4656
627441.9162913506 1012689.6578824423 150.8 17 22 12 4656
627466.830018692 1012716.2776242343 169.2 17 22 16 4656
627459.1307048524 1012732.1322345991 154.8 17 22 20 4656
627460.8188627049 1012733.4093578758 147.5 17 22 24 4656
627464.5865814162 1012730.4468750344 155.0 17 22 28 4656
627458.0694819838 1012734.0860971933 149.0 17 22 32 4656
627426.6471777477 1012766.4292777311 158.5 17 22 36 4656
627396.7668078793 1012801.1107040254 155.7 17 22 40 4656
627374.1560123097 1012827.1239030702 163.2 17 22 44 4656
627376.2386036849 1012825.3502591142 161.7 17 22 45 4656
627367.150356663 1012842.5716099663 168.6 17 22 48 4656
627336.8183407385 1012850.3362100585 169.9 17 22 52 4656
627335.1428310642 1012851.9563535167 175.5 17 22 56 4656
627329.7224016965 1012852.8788338025 173.9 17 23 00 4656
627319.3498634349 1012869.6758485517 167.1 17 23 08 4656
627301.2024717835 1012884.8665213356 164.7 17 23 12 4656
627269.967998119 1012865.7681534122 161.6 17 23 16 4656
627252.950922102 1012857.5414455284 151.9 17 23 20 4656
627242.5632224422 1012865.4034890935 159.1 17 23 24 4656
627240.2677819914 1012888.9277206825 161.7 17 23 28 4656
627240.056684612 1012889.6458172335 172.7 17 23 32 4656
627217.1025081096 1012885.8232524771 182.1 17 23 36 4656
627216.3557658386 1012892.4999365105 180.2 17 23 40 4656
627205.8323348439 1012884.4931908444 172.1 17 23 44 4656
627202.4805639521 1012877.7259128932 166.9 17 23 48 4656
627204.9705961038 1012885.9279698681 177.1 17 23 52 4656
627212.790587747 1012887.1695224333 166.8 17 23 56 4656
627211.3419679648 1012889.9957323147 160.0 18 00 00 4656
627178.8061709323 1012882.5816547913 162.3 18 00 08 4656
627182.9043969087 1012882.7607101452 156.1 18 00 12 4656
627145.5225661361 1012892.4268767164 156.5 18 00 16 4656
627153.1870457511 1012890.7706980134 156.6 18 00 20 4656
627135.0095790174 1012891.4199551009 158.2 18 00 24 4656
627117.1848859733 1012888.2995469393 161.2 18 00 32 4656
627118.9969181507 1012912.5668176768 146.0 18 00 36 4656
627095.2725249797 1012915.8964289137 164.7 18 00 40 4656
627096.3215850081 1012900.6285836351 153.5 18 00 44 4656
627089.755036737 1012892.3249663885 160.6 18 00 48 4656
627077.7211036799 1012868.7878495094 169.6 18 00 52 4656
627101.4324997572 1012859.2545959345 168.0 18 00 56 4656
627098.7702485141 1012846.5071212868 168.7 18 01 00 4656
627087.8892012911 1012809.5823669904 158.5 18 01 08 4656
627100.3999442614 1012814.6982454036 171.2 18 01 12 4656
627109.7767060028 1012810.2388072128 169.4 18 01 16 4656
627111.5065488553 1012812.2237661964 166.4 18 01 20 4656
627115.6170501304 1012812.0047619372 168.6 18 01 24 4656
627112.3514691459 1012816.0194064536 166.8 18 01 28 4656
627103.671602937 1012808.7926867785 156.6 18 01 32 4656
627101.988020725 1012802.6721525812 177.0 18 01 36 4656
627095.5360474419 1012803.1600835872 177.8 18 01 40 4656
627093.1738281817 1012792.7910633839 180.6 18 01 44 4656
627097.3744890215 1012798.709584685 173.1 18 01 48 4656
627103.8695249392 1012795.0812957525 181.6 18 01 52 4656
627103.1190260387 1012796.0962270312 185.9 18 01 56 4656
627102.7912546422 1012798.9260434647 174.4 18 02 00 4656
627106.4355522924 1012810.4160531109 167.8 18 02 08 4656
627109.597368062 1012811.3329812393 162.5 18 02 12 4656
627112.1859608319 1012812.8120291326 163.3 18 02 16 4656
627111.2115618134 1012811.6920296383 162.5 18 02 20 4656
627105.3604777238 1012809.8486344621 158.8 18 02 28 4656
627107.8261301161 1012808.5517070318 160.0 18 02 32 4656
627116.5355758365 1012806.5781943903 166.2 18 02 36 4656
627110.3660267048 1012797.8335284966 168.9 18 02 40 4656
627103.7289871702 1012797.7790170625 170.0 18 02 44 4656
627104.6966324082 1012801.0000310274 174.4 18 02 48 4656
627095.8092305263 1012800.2195108171 164.9 18 02 52 4656
627074.616994423 1012819.1491831699 172.3 18 02 56 4656
627077.6347135052 1012820.4526785996 167.6 18 03 00 4656
627058.4692752274 1012837.873914336 146.2 18 03 08 4656
627048.4258278996 1012834.3693997279 167.6 18 03 12 4656
627042.641618126 1012811.7149136813 153.4 18 03 28 4656
627041.8058469865 1012787.970521102 180.0 18 03 32 4656
627021.0469674941 1012788.3129735882 176.7 18 03 36 4656
627020.7957333907 1012781.00277328 179.5 18 03 40 4656
627023.7276191788 1012785.0815672028 180.8 18 03 44 4656
627011.6147600331 1012779.2482183254 175.9 18 03 48 4656
627033.2480106803 1012780.3792947428 183.6 18 03 52 4656
627035.8506875561 1012780.8963289394 183.2 18 03 56 4656
627002.666817338 1012804.1554519318 173.1 18 04 00 4656
627052.8990574499 1012834.1183806618 167.2 18 04 08 4656
627067.1515936395 1012844.3376239451 171.7 18 04 12 4656
627084.6613489577 1012832.6281006895 158.4 18 04 16 4656
627142.2865392733 1012822.330306179 133.8 18 04 20 4656
627143.3276168449 1012836.886098068 158.1 18 04 24 4656
627174.1439299599 1012842.5253151896 142.8 18 04 28 4656
627198.971346639 1012855.0013045537 160.9 18 04 32 4656
627201.511287913 1012854.5229205982 166.0 18 04 36 4656
627203.148015549 1012861.5390160093 150.6 18 04 40 4656
627206.40534903 1012860.0898286607 157.4 18 04 44 4656
627202.0196461846 1012877.536442339 173.0 18 04 48 4656
627204.7776675837 1012867.3386988646 171.6 18 04 52 4656
627206.3725029528 1012873.7132905497 170.1 18 04 56 4656
627210.9312564812 1012874.2034570517 175.4 18 05 00 4656
627227.2296815005 1012856.4744936457 157.8 18 05 24 4656
627258.1047768076 1012843.8460003356 160.0 18 05 28 4656
627259.9915946638 1012841.4414095992 167.0 18 05 32 4656
627248.1656048547 1012855.7456902877 154.3 18 18 44 4656
627287.7325900213 1012880.7316552668 168.8 18 18 48 4656
627301.9475770696 1012899.1780944103 158.2 18 18 52 4656
627325.8316606912 1012832.6299899035 149.0 18 18 56 4656
627357.2115636795 1012775.8813921091 129.8 18 19 00 4656
627429.8765518887 1012742.9744018449 113.7 18 19 08 4656
627438.5672670456 1012740.005667061 112.6 18 19 09 4656
627545.2509728101 1012711.3663738376 143.0 18 19 12 4656
627445.6755614846 1012709.7736211581 88.6 18 19 16 4656
627516.3034651243 1012657.7739187297 132.6 18 19 20 4656
627510.4197946592 1012655.8087201089 137.0 18 19 24 4656
627514.5988721789 1012665.0004195444 142.4 18 19 28 4656
627527.3977832373 1012662.5425639545 146.1 18 19 32 4656
627524.6217728133 1012657.8449765382 144.7 18 19 36 4656
627525.7950014776 1012662.0508384922 145.5 18 19 40 4656
627525.0137027245 1012665.7970149774 142.2 18 19 44 4656
627522.0576191235 1012655.6029709715 125.3 18 19 48 4656
627517.9941622409 1012661.6718222442 146.9 18 19 52 4656
627517.9712522102 1012658.5533640118 140.9 18 19 56 4656
627513.6927291405 1012663.1618528131 138.4 18 20 00 4656
627516.4409337294 1012659.4441352047 136.8 18 20 08 4656
627512.8573140174 1012670.0594134955 139.6 18 20 12 4656
627515.6345148005 1012660.7574486537 141.2 18 20 16 4656
627519.3495278535 1012667.3268824822 143.4 18 20 20 4656
627521.1934087365 1012661.2066410186 143.2 18 20 24 4656
627522.1966922517 1012656.7755781391 146.0 18 20 28 4656
627513.7179041513 1012655.3549151253 125.4 18 20 32 4656
627512.2426005196 1012656.2237476879 130.2 18 20 36 4656
627512.3006582411 1012662.0736699787 138.2 18 20 40 4656
627518.9250997016 1012662.6368791059 118.5 18 20 44 4656
627520.4144482433 1012654.0053054637 137.7 18 20 48 4656
627528.3776057828 1012668.7935509798 143.4 18 20 52 4656
627514.9718518812 1012668.6065630616 145.3 18 20 56 4656
627514.6004768385 1012664.5028101993 141.5 18 21 00 4656
627509.0714473154 1012665.0157697321 144.5 18 21 08 4656
627520.7153565473 1012656.1073149644 135.3 18 21 12 4656
627520.6823031135 1012645.9116396324 169.9 18 21 17 4656
627485.0281346382 1012624.0453958972 113.0 18 21 36 4656
627439.4210420316 1012621.7088880901 120.0 18 21 40 4656
627429.5980282539 1012631.6295201766 135.7 18 21 44 4656
627426.837545893 1012632.3394009827 132.9 18 21 48 4656
627432.8113416164 1012633.6192745735 120.1 18 21 52 4656
627421.2101432306 1012639.509030574 123.4 18 21 56 4656
627419.4046430885 1012674.6458450129 142.4 18 22 00 4656
627369.6334699774 1012699.410442552 138.1 18 22 08 4656
627370.3653655415 1012666.6476634954 149.3 18 22 12 4656
627371.2643375987 1012674.1258316379 152.1 18 22 16 4656
627356.4944752995 1012664.170205588 133.5 18 22 20 4656
627351.1744215023 1012678.2742582934 147.2 18 22 24 4656
627320.475940241 1012700.8444931237 148.3 18 22 28 4656
627286.3580937719 1012724.0008769324 154.5 18 22 32 4656
627301.7310091355 1012693.4083918525 164.2 18 22 36 4656
627289.6318721217 1012700.3802718517 157.0 18 22 40 4656
627261.524649238 1012747.5189098235 147.5 18 22 44 4656
627242.6125555653 1012788.6162595757 153.7 18 22 48 4656
627234.9172219045 1012837.4129677262 160.5 18 22 52 4656
627246.1571123082 1012865.227068658 152.6 18 22 56 4656
627242.5109310014 1012871.4078646742 178.3 18 23 00 4656
627207.5467982913 1012870.7645588038 165.6 18 23 08 4656
627194.3569846149 1012871.7947556757 173.0 18 23 12 4656
627204.9407481992 1012871.2980199945 169.1 18 23 16 4656
627195.9605782137 1012872.0321348606 146.6 18 23 20 4656
627193.1975878238 1012876.9440955565 155.9 18 23 24 4656
627213.9922820101 1012875.7061490136 170.2 18 23 28 4656
627210.8540869652 1012874.2806153763 166.2 18 23 32 4656
627199.2863175358 1012880.0599505837 165.9 18 23 36 4656
627178.9283299105 1012878.7670068378 158.6 18 23 40 4656
627175.1502198272 1012891.803398727 163.8 18 23 44 4656
627189.2004293783 1012903.415361455 162.9 18 23 48 4656
627184.6919051545 1012921.4697756531 160.8 18 23 52 4656
627190.9007507833 1012928.2351865052 145.9 18 23 56 4656
627187.4707314953 1012932.1276567498 160.3 19 00 00 4656
627186.1727318072 1012925.7097883662 145.1 19 00 08 4656
627195.5163729542 1012921.2944981751 149.1 19 00 12 4656
627209.8636697876 1012922.534937022 148.1 19 00 16 4656
627225.2706862267 1012918.8689989813 167.2 19 00 20 4656
627236.6422118722 1012929.6761785338 160.6 19 00 24 4656
627253.644007753 1012935.8128545384 164.5 19 00 28 4656
627276.4499289902 1012920.8251505183 159.8 19 00 32 4656
627282.6626317628 1012919.5624142225 164.0 19 00 36 4656
627283.2454716413 1012905.7748481183 161.1 19 00 40 4656
627280.3553705226 1012881.9021775959 150.0 19 00 44 4656
627269.3902635294 1012864.3176834148 162.2 19 00 48 4656
627261.6569008315 1012849.8177460012 149.8 19 00 52 4656
627252.7969409599 1012843.9284384906 151.4 19 00 56 4656
627255.2536991371 1012845.3960142971 160.9 19 01 00 4656
627279.7261588192 1012875.9619557674 157.1 19 01 04 4656
627278.95613542 1012876.2138128419 155.5 19 01 05 4656
627242.2328774206 1012909.9997107532 156.7 19 01 08 4656
627239.2453219767 1012936.8833748655 161.2 19 01 12 4656
627251.4296253026 1012940.9809137924 168.5 19 01 16 4656
627247.3094531395 1012944.2076723566 170.7 19 01 20 4656
627253.3933235842 1012938.5876288349 170.3 19 01 24 4656
627290.6157153127 1012940.8969685443 161.5 19 01 28 4656
627328.4576767122 1012962.372018763 145.0 19 01 32 4656
627337.0812628799 1012973.4026015439 147.7 19 01 36 4656
627341.6472049016 1012944.3676918749 122.3 19 01 40 4656
627355.583096935 1012930.0481185131 153.4 19 01 44 4656
627348.1867593343 1012909.8653824704 152.2 19 01 48 4656
627330.6738568558 1012905.474198302 161.5 19 01 52 4656
627318.8258733298 1012858.3617303255 170.7 19 01 56 4656
627327.2225304281 1012854.5626711217 168.7 19 02 00 4656
627335.2004454611 1012851.1271819504 161.9 19 02 08 4656
627332.581851953 1012848.730199544 162.5 19 02 12 4656
627328.9285606055 1012843.4658384036 163.4 19 02 16 4656
627347.0497664209 1012836.4138487333 148.0 19 02 20 4656
627419.8688834362 1012796.5628653932 145.3 19 02 24 4656
627414.0773458814 1012793.2931203403 134.2 19 02 28 4656
627428.660955969 1012775.7798606562 151.0 19 02 32 4656
627422.4760330732 1012771.8232447992 138.4 19 02 36 4656
627426.2703440354 1012774.2461384566 135.4 19 02 40 4656
627422.0930332625 1012771.3243960881 140.8 19 02 44 4656
627428.3044831355 1012760.2310260728 147.5 19 02 48 4656
627428.3878543999 1012758.2297790486 162.6 19 02 53 4656
627439.20240077 1012740.6933162262 140.3 19 02 56 4656
627461.9612294137 1012723.328054212 130.4 19 03 00 4656
627511.2674939721 1012655.3248971998 100.1 19 03 08 4656
627510.8442535532 1012657.0817703529 132.4 19 03 12 4656
627522.6441572472 1012654.3221228219 131.8 19 03 16 4656
627527.391706608 1012654.2047363034 128.2 19 03 20 4656
627511.7002375581 1012660.8442846884 124.9 19 03 24 4656
627513.6979592724 1012654.7245390888 121.5 19 03 28 4656
627483.5128815783 1012671.3912918946 114.2 19 03 32 4656
627453.0375522627 1012686.0666713496 125.3 19 03 36 4656
627430.9960365912 1012692.2545154094 135.9 19 03 40 4656
627424.9539353726 1012759.9106011144 150.8 19 03 44 4656
627423.8714406019 1012778.6948206265 141.8 19 03 48 4656
627417.7745595931 1012781.5171030824 136.0 19 03 52 4656
627401.3897144673 1012791.9252634074 144.2 19 03 56 4656
627362.6412365144 1012836.9063966577 155.7 19 04 00 4656
627322.7099120263 1012843.1583005213 162.8 19 04 08 4656
627323.6940269271 1012841.2594775658 156.5 19 04 12 4656
627314.7522468651 1012867.6042367945 149.2 19 04 16 4656
627261.6115375682 1012857.0827667256 152.9 19 04 20 4656
627205.9905804801 1012866.0488049078 156.4 19 04 24 4656
627202.3217025748 1012858.7939509422 161.8 19 04 28 4656
627198.6956748533 1012851.882036176 172.7 19 04 32 4656
627202.4521273324 1012869.4875440041 172.3 19 04 36 4656
627203.7922318805 1012876.4805690218 172.4 19 04 40 4656
627202.8847650007 1012875.0511555267 176.6 19 04 44 4656
627212.4102388629 1012875.6015354991 174.1 19 04 52 4656
627208.9862265657 1012877.6252066243 172.1 19 04 56 4656
627221.199296296 1012876.2048384581 157.6 19 05 00 4656
627204.0556304678 1012859.5072476281 160.7 19 05 08 4656
627231.7996081276 1012870.5661507713 156.6 19 05 12 4656
627241.2308383512 1012859.4278312643 161.5 19 05 16 4656
627237.9611182692 1012864.7251919501 155.6 19 05 20 4656
627240.070767419 1012861.3703217894 153.1 19 05 24 4656
627440.7967988303 1012689.2340666335 151.6 19 19 08 4656
627438.6395096693 1012676.6761728192 137.4 19 19 12 4656
627427.0701124729 1012628.3702935436 130.5 19 19 16 4656
627438.8393146539 1012611.2681693581 150.5 19 19 20 4656
627468.3928208225 1012609.8595195919 111.8 19 19 24 4656
627501.6495240135 1012622.0974683402 142.3 19 19 28 4656
627528.7258473476 1012663.0334034966 151.8 19 19 32 4656
627529.8385952491 1012662.1412860443 157.5 19 19 36 4656
627521.4739493405 1012666.2168653433 135.9 19 19 40 4656
627521.943824664 1012667.0366801076 146.3 19 19 44 4656
627515.5832141696 1012663.0352519176 137.4 19 19 48 4656
627522.4281683026 1012656.5551626141 134.5 19 19 52 4656
627493.0528746323 1012647.005765718 125.4 19 19 56 4656
627493.2492834633 1012664.4781963819 124.3 19 20 00 4656
627435.6821970156 1012687.3155900397 147.9 19 20 08 4656
627460.5573511143 1012722.494171287 151.7 19 20 12 4656
627462.0536608105 1012745.7873511547 130.1 19 20 16 4656
627460.0982628481 1012738.7812710197 126.2 19 20 20 4656
627442.3951497844 1012752.4694234455 149.4 19 20 24 4656
627418.4473294412 1012790.9850028224 133.6 19 20 28 4656
627435.8022745422 1012765.9832860092 160.5 19 20 32 4656
627419.134018397 1012782.4945967862 139.0 19 20 36 4656
627414.7928463067 1012799.7312389386 163.5 19 20 40 4656
627405.0883925322 1012817.2049341423 153.6 19 20 44 4656
627330.9619623165 1012850.1404184978 167.4 19 20 48 4656
627295.2901809431 1012888.3860739135 171.2 19 20 52 4656
627279.4776768967 1012908.7705186565 172.8 19 20 56 4656
627226.0196192975 1012949.0710575106 169.3 19 21 00 4656
627136.0253890132 1013006.0845416121 148.3 19 21 08 4656
627098.9515933535 1012978.0878813035 161.5 19 21 12 4656
627108.2799427635 1012951.080851081 156.8 19 21 16 4656
627122.7255130277 1012921.7570202068 162.2 19 21 20 4656
627133.2350769322 1012903.3238094776 160.7 19 21 24 4656
627139.5246237917 1012854.2461245166 195.4 19 21 28 4656
627108.7144145262 1012826.2032693336 201.9 19 21 32 4656
627101.5025690509 1012806.6957354527 195.6 19 21 40 4656
627095.4251656246 1012803.4693535628 195.2 19 21 44 4656
627098.5416367303 1012801.4004516209 189.4 19 21 48 4656
627092.9358405999 1012788.2011926492 194.6 19 21 52 4656
627100.4636909189 1012801.7051987512 188.6 19 21 56 4656
627105.2153069563 1012803.7330458608 179.8 19 22 00 4656
627099.0817557686 1012804.2994065535 177.3 19 22 08 4656
627092.5462458063 1012803.4269248692 167.9 19 22 12 4656
627116.1769789942 1012818.9952732014 176.5 19 22 16 4656
627139.4321262755 1012845.4214727717 163.8 19 22 32 4656
627216.5613227596 1012869.5992915054 167.4 19 22 36 4656
627246.5000735417 1012864.5093965351 171.9 19 22 40 4656
627257.5039864965 1012846.1441496887 166.2 19 22 48 4656
627297.2481058007 1012788.8142450012 149.7 19 22 52 4656
627382.8701623583 1012765.7131945114 154.4 19 22 56 4656
627438.7306984903 1012685.8878621943 146.4 19 23 00 4656
627514.59949677 1012654.5836909661 124.1 19 23 08 4656
627526.3497860611 1012660.3939125566 130.1 19 23 12 4656
627503.6085244912 1012627.9866938477 124.2 19 23 16 4656
627465.0007814604 1012625.8164799634 124.9 19 23 20 4656
627443.5426780508 1012635.0914112082 126.0 19 23 24 4656
627436.94921308 1012628.3247225779 148.4 19 23 28 4656
627444.6343143859 1012637.3397232479 123.3 19 23 32 4656
627457.6264087403 1012653.3605493833 143.9 20 00 01 4656
627419.7903383531 1012670.8983929488 125.0 20 00 04 4656
627445.1457086494 1012686.6494301449 144.7 20 00 08 4656
627473.7364497455 1012677.0878694492 132.6 20 00 12 4656
627512.7911740523 1012653.085016158 127.5 20 00 16 4656
627513.709132144 1012658.0751795287 140.0 20 00 20 4656
627528.8098295493 1012660.8441703612 136.7 20 00 24 4656
627520.092042008 1012661.9771562879 135.7 20 00 28 4656
627525.7357332436 1012656.5768874496 136.0 20 00 32 4656
627518.9530323652 1012660.790266387 130.4 20 00 36 4656
627516.4378257476 1012657.0002849775 130.6 20 00 40 4656
627521.1189586939 1012667.2551819944 137.6 20 00 44 4656
627520.9751628336 1012657.3245438744 135.9 20 00 48 4656
627523.3895705953 1012654.888489854 136.0 20 00 52 4656
627518.4221814008 1012658.433179066 143.6 20 00 56 4656
627521.3341475278 1012655.0477328254 134.7 20 01 00 4656
627529.6965935491 1012658.4695385542 128.6 20 01 08 4656
627523.9996502416 1012649.7152661887 133.8 20 01 12 4656
627522.7801685841 1012659.8516117932 135.3 20 01 16 4656
627514.6256164036 1012656.7069304702 134.2 20 01 20 4656
627525.6962409883 1012658.600392534 123.2 20 01 24 4656
627526.1092017927 1012653.2164292411 130.2 20 01 28 4656
627521.2367877961 1012657.9778155207 127.8 20 01 32 4656
627520.5548922531 1012664.9753941977 136.9 20 01 36 4656
627521.6794637495 1012650.1943402527 129.9 20 01 40 4656
627512.7241067198 1012656.8445539984 134.1 20 01 44 4656
627526.3823503494 1012653.7038665792 134.0 20 01 48 4656
627522.2898186146 1012661.9731857867 136.8 20 01 52 4656
627511.3479867787 1012657.6252416174 130.0 20 01 56 4656
627523.2982474903 1012662.761563058 137.3 20 02 00 4656
627455.5377177997 1012626.3388831629 89.9 20 02 08 4656
627451.7575063248 1012619.5370271198 148.2 20 02 12 4656
627444.8954514347 1012610.8674789156 120.4 20 02 16 4656
627430.3991257004 1012611.5063648226 105.5 20 02 20 4656
627435.9829872977 1012617.8495905407 108.3 20 02 24 4656
627438.4164949488 1012619.7151932064 122.3 20 02 28 4656
627444.421322698 1012679.558854576 147.7 20 02 32 4656
627459.9002400093 1012721.8064509305 141.6 20 02 36 4656
627456.6185738747 1012730.7971648412 134.1 20 02 40 4656
627454.1402387709 1012732.6137623198 132.8 20 02 44 4656
627456.4176348344 1012741.9983711669 124.9 20 02 48 4656
627455.6884210918 1012729.5888337594 126.8 20 02 52 4656
627468.0718745544 1012726.4661368898 124.7 20 02 56 4656
627457.7583670696 1012731.7407773612 112.2 20 03 00 4656
627422.2772159394 1012775.5491830037 146.5 20 03 08 4656
627413.7146679086 1012779.6683754271 148.3 20 03 12 4656
627426.036660045 1012785.3808899354 143.6 20 03 16 4656
627421.0592803865 1012781.804141226 134.6 20 03 20 4656
627425.3163973937 1012783.8304349058 133.4 20 03 24 4656
627385.2497845779 1012797.9441542227 142.2 20 03 28 4656
627374.2561532957 1012833.5600377746 160.8 20 03 32 4656
627326.6368677064 1012845.3383338997 164.4 20 03 36 4656
627322.7181075166 1012847.4378095239 163.7 20 03 40 4656
627332.3971135635 1012854.9110796455 161.4 20 03 44 4656
627289.0693227826 1012881.9412913698 152.9 20 03 48 4656
627279.9317613565 1012890.603533207 158.3 20 03 52 4656
627280.9510555966 1012905.0818591348 138.4 20 03 56 4656
627242.9466616084 1012940.8762015939 163.9 20 04 00 4656
627204.8403336421 1012885.429936655 168.6 20 04 08 4656
627208.4426834491 1012886.0386647087 167.3 20 04 12 4656
627210.338337628 1012891.1314862039 169.2 20 04 16 4656
627217.6496979191 1012886.5216730374 167.2 20 04 20 4656
627216.4678073218 1012881.5859611991 169.8 20 04 24 4656
627205.6740503233 1012861.9673510438 154.0 20 04 28 4656
627202.5226238003 1012861.2384353762 159.1 20 04 32 4656
627200.7545304482 1012854.0671040853 164.2 20 04 36 4656
627200.4720228473 1012856.4879169154 166.1 20 04 40 4656
627207.6308818555 1012861.7082531499 155.2 20 04 44 4656
627209.8248438061 1012859.4705201292 158.7 20 04 48 4656
627204.2046573975 1012867.8344692467 167.8 20 04 52 4656
627202.5778107952 1012864.5781562413 158.4 20 04 56 4656
627211.5355896542 1012877.633409789 173.2 20 05 00 4656
627254.5440738135 1012840.5392277334 160.2 20 05 20 4656
627258.8489633184 1012837.965490655 158.4 20 05 24 4656
627264.9948560764 1012836.978987309 155.4 20 05 28 4656
627267.0623696744 1012833.0600198002 160.3 20 05 32 4656
627264.71037179 1012833.1851458438 143.8 20 05 36 4656
627262.3637131226 1012831.651575356 157.8 20 05 40 4656
627261.3158761406 1012832.8645926438 148.8 20 05 44 4656
627264.4448391224 1012830.331303255 161.7 20 05 48 4656
627250.6529095116 1012844.3085707803 152.5 20 05 52 4656
627445.9629737391 1012654.6941609586 100.2 20 19 09 4656
627444.9895408963 1012653.2755870959 105.7 20 19 12 4656
627452.0372164876 1012672.5393928239 139.8 20 19 16 4656
627513.4553756907 1012648.1663033399 141.0 20 19 20 4656
627526.7004879257 1012653.8707640865 131.6 20 19 24 4656
627518.4460679328 1012647.618433791 158.8 20 19 28 4656
627518.9443150765 1012653.2707298966 147.7 20 19 32 4656
627512.7083100574 1012661.7432415128 131.0 20 19 36 4656
627522.5799367315 1012653.7911268848 156.3 20 19 40 4656
627516.2661785879 1012655.7059337036 129.9 20 19 44 4656
627521.8854015601 1012654.4855474224 144.0 20 19 48 4656
627511.4761367585 1012655.3698023958 138.6 20 19 52 4656
627524.4671414294 1012654.6818610426 138.1 20 19 56 4656
627523.1447776407 1012649.0158489548 134.6 20 20 00 4656
627493.3806071962 1012630.5634283589 139.7 20 20 08 4656
627434.608533325 1012624.9334016456 131.2 20 20 12 4656
627432.6849477257 1012618.2812863117 103.0 20 20 17 4656
627422.4028322414 1012627.4484899932 138.2 20 20 20 4656
627429.0430204078 1012629.9469009046 136.5 20 20 24 4656
627419.5275381837 1012619.4552791805 152.1 20 20 28 4656
627417.7560254545 1012667.9172096171 140.2 20 20 32 4656
627436.2698477611 1012678.869097257 153.6 20 20 36 4656
627481.7597596322 1012717.531088863 137.0 20 20 40 4656
627504.1735154048 1012701.5469972499 136.6 20 20 44 4656
627513.264728471 1012656.1717532047 134.4 20 20 48 4656
627515.705623268 1012662.560148337 138.5 20 20 52 4656
627514.8504184196 1012655.1484632355 142.6 20 20 56 4656
627515.7766790757 1012654.1562211325 151.4 20 21 00 4656
627524.0623879388 1012660.9283826537 146.3 20 21 08 4656
627518.5859723991 1012655.3484972103 137.2 20 21 12 4656
627512.3232655659 1012655.0629072714 145.1 20 21 16 4656
627517.8445584086 1012656.9495308739 146.9 20 21 20 4656
627526.6997437808 1012657.5088768582 145.3 20 21 24 4656
627510.2734592811 1012663.7037318222 140.0 20 21 28 4656
627514.8266820831 1012648.878443777 142.9 20 21 32 4656
627526.4785788336 1012657.9394295302 136.2 20 21 36 4656
627514.3434104102 1012659.0282215215 146.3 20 21 40 4656
627517.3931600696 1012653.8075746698 147.6 20 21 44 4656
627513.5024505917 1012657.422085123 134.7 20 21 48 4656
627524.554409175 1012654.8811882908 135.9 20 21 52 4656
627521.1936635175 1012664.5351301419 134.1 20 21 56 4656
627513.4631729105 1012659.37924223 136.1 20 22 00 4656
627525.2964297296 1012653.0921689583 132.2 20 22 08 4656
627527.1872193348 1012666.5006849949 141.1 20 22 12 4656
627517.8072170602 1012665.1213467537 138.3 20 22 16 4656
627521.2042956118 1012664.6457454362 124.2 20 22 20 4656
627512.9709276607 1012658.6809945717 127.9 20 22 24 4656
627522.3116075074 1012655.2167565351 128.1 20 22 28 4656
627522.0615469725 1012657.7924875704 129.0 20 22 32 4656
627522.8081981797 1012651.1600350472 128.3 20 22 36 4656
627525.1947497531 1012653.954372903 130.8 20 22 40 4656
627523.1450425241 1012659.1561281421 127.6 20 22 44 4656
627522.507809648 1012662.5267938274 133.0 20 22 48 4656
627515.9108670919 1012656.84377226 133.1 20 22 52 4656
627522.2668376063 1012658.8768434803 125.2 20 22 56 4656
627524.882827126 1012658.6751759895 129.2 20 23 00 4656
627523.2767898971 1012652.3779372871 133.9 20 23 08 4656
627522.0720720859 1012657.9362768217 124.8 20 23 12 4656
627517.4503310776 1012663.3398416744 130.1 20 23 16 4656
627521.243818161 1012659.2052873647 122.7 20 23 20 4656
627527.181677707 1012657.9969875454 134.0 20 23 24 4656
627514.6537329162 1012658.2109227929 134.6 20 23 28 4656
627521.7051654874 1012659.262065664 123.3 20 23 32 4656
627526.5400270186 1012666.144738537 121.1 20 23 36 4656
627531.4440370232 1012678.8441964409 129.7 20 23 40 4656
627532.1555563802 1012679.697965035 130.5 20 23 44 4656
627537.577297617 1012674.9715262951 148.1 20 23 48 4656
627522.802074672 1012659.8737986403 126.5 20 23 52 4656
627512.9227532693 1012653.1739052582 127.7 20 23 56 4656
627520.1347790984 1012658.94737454 128.8 21 00 00 4656
627513.3607682362 1012653.6508160233 121.8 21 00 08 4656
627504.5877222379 1012658.2890450304 113.9 21 00 12 4656
627465.1819050494 1012682.1249019401 126.8 21 00 16 4656
627434.2701311602 1012682.2021981082 136.9 21 00 20 4656
627374.3078668863 1012691.2977996595 113.2 21 00 24 4656
627356.6176601766 1012694.1601556346 132.2 21 00 28 4656
627332.4547646114 1012680.0496168748 151.3 21 00 32 4656
627280.7436778302 1012706.6658309893 159.0 21 00 36 4656
627279.1111792627 1012701.750783117 147.2 21 00 40 4656
627276.6466685479 1012709.5166889641 163.5 21 00 44 4656
627267.1363242373 1012700.838649775 152.3 21 00 48 4656
627269.0329533933 1012702.2159576989 152.5 21 00 52 4656
627249.9354124827 1012729.2247014315 151.8 21 00 56 4656
627236.9122363551 1012726.2634556892 150.4 21 01 00 4656
627137.097926299 1012775.0845282095 161.9 21 01 08 4656
627121.7264361398 1012743.7628335488 156.9 21 01 12 4656
627109.8650062731 1012775.9369061424 175.5 21 01 16 4656
627085.8980876781 1012810.250510014 167.2 21 01 20 4656
627067.4135467322 1012810.6997701307 166.7 21 01 24 4656
627061.5592348778 1012813.2796053708 166.8 21 01 28 4656
627028.3971573629 1012785.2956148833 159.7 21 01 32 4656
627021.5390185677 1012782.232608453 159.1 21 01 36 4656
627014.4368904632 1012779.865478788 179.0 21 01 40 4656
627013.4223584338 1012784.3960337666 177.7 21 01 44 4656
627004.9962914919 1012800.7791614375 181.2 21 01 48 4656
627048.1743613656 1012816.8747016685 199.4 21 01 52 4656
627029.6054699171 1012816.217899549 198.3 21 01 56 4656
627056.2626676294 1012826.952492974 170.5 21 02 00 4656
627077.7854792703 1012852.1788113563 169.8 21 02 08 4656
627094.2017787653 1012842.2018972476 167.1 21 02 12 4656
627138.5890547726 1012820.5491217955 161.4 21 02 16 4656
627174.4633341628 1012859.3788707647 161.7 21 02 20 4656
627209.8888245554 1012877.1526130211 173.7 21 02 24 4656
627212.4326431172 1012875.4689105013 165.3 21 02 28 4656
627212.4174202078 1012876.7847743264 174.4 21 02 32 4656
627211.3939238817 1012870.434136843 161.9 21 02 40 4656
627209.2746115357 1012869.9628777028 179.3 21 02 44 4656
627246.2904621761 1012854.5232648513 149.7 21 02 52 4656
627250.3809959554 1012846.8510567514 157.9 21 02 57 4656
627258.5539071672 1012837.4558686762 166.6 21 03 00 4656
627262.4298229882 1012831.5964976953 153.7 21 03 08 4656
627268.807703098 1012837.057609541 140.7 21 03 12 4656
627264.8559903454 1012835.7400339451 150.8 21 03 16 4656
627251.6104349226 1012837.0133119859 153.8 21 03 20 4656
627259.3113959802 1012830.8566258204 153.0 21 03 24 4656
627260.9977292838 1012836.1146477149 157.4 21 03 28 4656
627270.8022617514 1012838.7338022337 151.7 21 03 32 4656
627273.0754140022 1012828.9657658868 166.6 21 03 36 4656
627278.5693829111 1012829.0940331743 164.4 21 03 40 4656
627284.2659653763 1012814.0733659985 160.8 21 03 44 4656
627299.6443689222 1012792.0066911044 149.0 21 03 49 4656
627317.4011838669 1012785.5064171714 155.9 21 03 52 4656
627315.7257297274 1012790.5213966934 140.6 21 03 56 4656
627355.7817190345 1012776.2859359657 149.8 21 04 01 4656
627357.851755926 1012774.9988066118 168.1 21 04 04 4656
627378.9761665942 1012763.533262439 154.0 21 04 08 4656
627380.2759486671 1012759.1584437869 147.6 21 04 12 4656
627380.7777938587 1012760.2879863699 146.1 21 04 16 4656
627387.9701573555 1012758.5197467736 140.6 21 04 20 4656
627417.2676288808 1012737.6369385547 155.5 21 04 24 4656
627416.1996111358 1012734.8800306342 159.4 21 04 28 4656
627432.4830398526 1012701.393296311 152.9 21 04 32 4656
627432.469697504 1012691.8943474 145.2 21 04 36 4656
627425.6737281623 1012683.180781731 134.4 21 04 40 4656
627425.3967351085 1012666.8360212832 122.0 21 04 44 4656
627438.2369773089 1012661.7796178651 143.6 21 04 48 4656
627438.9614119657 1012662.0362888258 136.8 21 04 52 4656
627451.9098942783 1012654.083016557 124.4 21 04 56 4656
627437.1427043347 1012660.349596663 134.3 21 05 00 4656
627439.4030626802 1012661.385284421 141.2 21 05 08 4656
627399.7819349159 1012690.6721487115 127.9 21 05 12 4656
627383.2786479486 1012686.6712396778 142.2 21 05 16 4656
627354.6967407293 1012693.5015411115 132.1 21 05 20 4656
627345.6979608274 1012686.3511460872 104.5 21 05 24 4656
627309.430397695 1012708.2289092359 145.1 21 05 28 4656
627292.6907286798 1012716.2142496653 160.3 21 05 32 4656
627266.2107633858 1012735.757124885 158.9 21 05 36 4656
627254.9661895697 1012733.2881535755 155.0 21 05 40 4656
627244.6149995923 1012733.2106083477 144.0 21 05 44 4656
627233.3638642806 1012739.6102111402 158.9 21 05 56 4656
627236.4201387933 1012739.1777223131 157.4 21 06 00 4656
627450.8959328032 1012685.6948511887 134.7 21 19 08 4656
627518.3610165855 1012650.1394064307 121.0 21 19 12 4656
627531.4720119818 1012653.1342017124 144.0 21 19 16 4656
627524.049616153 1012661.4812465034 138.4 21 19 20 4656
627524.3030031635 1012664.6889128954 147.9 21 19 24 4656
627528.4206600173 1012662.2583521765 136.3 21 19 28 4656
627523.6297223959 1012658.7927738818 141.7 21 19 32 4656
627511.8594697876 1012662.5809199088 141.5 21 19 36 4656
627525.0316714792 1012656.8178950787 146.1 21 19 40 4656
627524.4011217736 1012668.3384025921 146.3 21 19 44 4656
627521.1446142861 1012669.5221753749 148.9 21 19 48 4656
627522.2478302191 1012664.770749857 149.8 21 19 52 4656
627524.8946568833 1012648.1921346296 138.1 21 19 56 4656
627513.8960234605 1012644.4190282724 143.1 21 20 00 4656
627428.0898124622 1012618.8414997293 128.2 21 20 08 4656
627424.4918414258 1012630.5072562108 131.1 21 20 12 4656
627424.4977208119 1012628.6826891477 150.4 21 20 16 4656
627414.1492080443 1012644.8162814099 143.9 21 20 20 4656
627435.96562225 1012688.024221725 150.8 21 20 24 4656
627447.7833718394 1012703.5878799417 105.4 21 20 28 4656
627504.864342801 1012664.5156473275 118.0 21 20 32 4656
627521.4479268184 1012657.2486617776 127.8 21 20 36 4656
627527.0001833881 1012656.3487451944 117.9 21 20 40 4656
627502.8634293417 1012661.4018693474 116.7 21 20 44 4656
627491.3492514532 1012670.9742329319 108.9 21 20 48 4656
627453.6419305255 1012686.0686194166 139.5 21 20 52 4656
627438.0176806473 1012685.4985308001 148.9 21 20 56 4656
627372.4676796894 1012689.4562280963 132.3 21 21 00 4656
627321.5851484209 1012694.2242665885 151.3 21 21 08 4656
627302.300184979 1012741.8889046581 139.2 21 21 12 4656
627265.9309212348 1012737.3485894032 147.1 21 21 16 4656
627233.1457469251 1012728.8499869456 164.9 21 21 32 4656
627236.085659286 1012730.4296960909 158.2 21 21 36 4656
627246.3774504655 1012735.3062594337 158.4 21 21 40 4656
627250.7680563473 1012747.0751406588 149.6 21 21 44 4656
627248.7560618019 1012747.4004081826 156.7 21 21 48 4656
627246.7484089322 1012746.3766026353 164.5 21 21 52 4656
627249.7928679922 1012749.6153632224 157.4 21 21 56 4656
627249.4926782022 1012754.1150403401 153.0 21 22 00 4656
627278.944713581 1012760.2917883964 144.9 21 22 08 4656
627288.3020872955 1012758.4530940208 141.7 21 22 12 4656
627296.5889550779 1012771.6941943512 154.2 21 22 16 4656
627292.3041344049 1012778.2710227934 154.2 21 22 20 4656
627306.897708711 1012781.5359145292 147.9 21 22 24 4656
627310.1372994698 1012782.1877151433 135.3 21 22 28 4656
627320.8347453476 1012790.7590105326 143.8 21 22 32 4656
627335.1872717704 1012786.9791310324 145.0 21 22 36 4656
627342.5592541394 1012777.2054017768 151.8 21 22 40 4656
627371.0070999706 1012764.215308007 143.4 21 22 44 4656
627384.7803070209 1012759.4825821939 162.6 21 22 48 4656
627376.0818902247 1012761.433958111 146.9 21 22 52 4656
627378.3204800005 1012762.4032242616 143.9 21 22 56 4656
627381.295045223 1012760.0463746664 134.2 21 23 00 4656
627432.9204039786 1012749.8070582915 141.9 21 23 08 4656
627443.2451054564 1012744.4660998143 135.7 21 23 12 4656
627453.1130413269 1012730.8300973576 145.5 21 23 16 4656
627454.3234870486 1012723.4914216272 135.9 21 23 20 4656
627457.316849355 1012728.9416551361 134.1 21 23 24 4656
627451.3128576898 1012730.2160992716 148.1 21 23 28 4656
627452.7335701699 1012729.236507975 138.5 21 23 32 4656
627455.6140310939 1012728.8034689588 133.4 21 23 36 4656
627456.8890192641 1012721.8962671444 128.5 21 23 40 4656
627463.2418081317 1012724.9134904502 141.6 21 23 44 4656
627464.0739088235 1012722.4502167775 128.9 21 23 48 4656
627463.418019212 1012724.7924194025 147.0 21 23 52 4656
627459.0982896244 1012725.1434116542 141.4 21 23 56 4656
627465.1559122729 1012700.4149136065 134.5 22 00 00 4656
627441.4195907864 1012680.1131430675 143.1 22 00 08 4656
627439.342037918 1012676.9106570268 131.9 22 00 12 4656
627439.249625076 1012664.6690449473 144.2 22 00 16 4656
627428.3236004139 1012662.2342265855 141.3 22 00 20 4656
627440.0536056637 1012660.7017789518 144.0 22 00 24 4656
627436.2100544868 1012659.9153251561 155.2 22 00 28 4656
627416.5590907235 1012636.9617396204 132.5 22 00 32 4656
627438.5505104315 1012622.4580332685 130.5 22 00 36 4656
627425.4912163254 1012623.8756183309 123.4 22 00 40 4656
627431.0272466233 1012624.601175982 132.8 22 00 44 4656
627440.5028449595 1012637.237943452 124.1 22 00 48 4656
627439.4092002058 1012632.2029844946 129.9 22 00 52 4656
627441.0722276722 1012648.0988303797 127.0 22 00 56 4656
627445.5414352369 1012652.5143570662 129.3 22 01 00 4656
627443.8155314603 1012652.7188984577 117.4 22 01 12 4656
627441.5670157424 1012641.1891139239 136.6 22 01 20 4656
627430.2226176979 1012673.0993979942 149.2 22 01 24 4656
627466.3643161425 1012676.6660127051 116.7 22 01 28 4656
627520.9060211433 1012658.3195499578 124.0 22 01 32 4656
627515.6890304125 1012660.8903216589 131.1 22 01 36 4656
627512.7481463365 1012652.7973668001 123.4 22 01 40 4656
627521.702195276 1012653.3680884385 123.5 22 01 44 4656
627525.3128892826 1012661.618017746 129.2 22 01 48 4656
627513.4863924922 1012655.5863886813 124.7 22 01 52 4656
627522.1366543082 1012661.7625879308 126.0 22 01 56 4656
627517.0962922757 1012657.2678027907 126.0 22 02 00 4656
627525.2557655456 1012658.8864826243 127.4 22 02 08 4656
627514.681665356 1012656.3643100995 126.8 22 02 12 4656
627524.8818851066 1012648.7449984775 128.7 22 02 16 4656
627518.5507651481 1012659.4509389758 126.8 22 02 20 4656
627525.2038385099 1012647.7286914937 125.6 22 02 24 4656
627487.0367435166 1012621.3647533079 74.8 22 02 28 4656
627455.8397610512 1012614.4524012362 112.5 22 02 32 4656
627449.6971276595 1012590.54711227 120.5 22 02 36 4656
627461.4879553961 1012590.6072303713 125.0 22 02 40 4656
627446.7328244064 1012613.5826343877 126.9 22 02 44 4656
627417.8430517144 1012627.2679258877 135.6 22 02 52 4656
