627679.7920398068 1013427.5809010462 90.0 52 10 08 4692
627721.3584035805 1013377.6883412501 111.7 52 10 12 4692
627715.6252395874 1013380.1910599481 110.3 52 10 16 4692
627711.2440977988 1013368.963974683 113.3 52 10 20 4692
627741.9269370143 1013344.3703881593 98.0 52 10 24 4692
627726.61791732 1013327.9438382138 103.0 52 10 28 4692
627733.0592465404 1013330.7291867222 102.0 52 10 32 4692
627732.6332881801 1013326.5257272918 106.2 52 10 36 4692
627747.0817592444 1013306.6235982842 95.4 52 10 40 4692
627741.0474037189 1013313.9135036534 83.3 52 10 44 4692
627736.5190000695 1013317.6475655236 87.0 52 10 48 4692
627740.3108584658 1013324.2062251953 105.3 52 10 52 4692
627736.5488409331 1013315.2148773298 94.1 52 11 12 4692
627739.4759785016 1013307.129801207 111.1 52 11 17 4692
627731.1477584303 1013310.1659780304 77.9 52 11 20 4692
627727.8379111825 1013300.667419902 77.8 52 11 24 4692
627730.0889836013 1013307.9619915143 81.9 52 11 28 4692
627735.6060132701 1013307.7365459776 109.9 52 11 33 4692
627707.2288158752 1013244.5251330523 69.5 52 11 36 4692
627729.4865149752 1013225.7761592926 87.3 52 11 40 4692
627727.2731146046 1013230.623516497 75.9 52 11 44 4692
627718.9842262914 1013221.4848446924 78.5 52 11 48 4692
627703.6203860752 1013225.4050578093 35.2 52 11 53 4692
627703.2327596464 1013202.5356331804 90.1 52 11 56 4692
627698.5623712474 1013202.5979490301 71.1 52 12 00 4692
627686.7313097995 1013191.2362188359 64.7 52 12 08 4692
627721.7995317597 1013210.6017037428 99.9 52 12 16 4692
627688.5054139325 1013210.1181438823 100.4 52 12 20 4692
627697.8953723258 1013198.1725498646 66.9 52 12 24 4692
627680.7604538533 1013199.2782904023 100.6 52 12 28 4692
627674.5701002943 1013227.6444583564 70.3 52 12 33 4692
627683.2081936892 1013206.9273519946 110.2 52 12 36 4692
627688.3646442741 1013223.0777937225 22.9 52 12 40 4692
627689.3243550905 1013208.3293760284 39.5 52 12 45 4692
627681.0244504098 1013202.5965761158 35.5 52 12 48 4692
627685.9049430314 1013202.1257869498 111.6 52 12 52 4692
627701.8237199548 1013196.5044102084 85.6 52 12 56 4692
627700.6234298113 1013197.2856576714 74.1 52 12 57 4692
627681.7044968266 1013209.7865442988 55.9 52 13 00 4692
627696.2773383361 1013199.0077382221 78.4 52 13 08 4692
627689.9703075496 1013188.6590858474 111.2 52 13 12 4692
627694.533741519 1013187.6896581991 87.9 52 13 16 4692
627689.0327273678 1013193.1567072864 77.5 52 13 20 4692
627706.9974706644 1013139.2843497291 69.3 52 13 24 4692
627713.2991216851 1013127.4946500633 69.5 52 13 28 4692
627733.6125983542 1013118.724862868 51.6 52 13 32 4692
627735.8160875327 1013113.5457300342 57.6 52 13 36 4692
627731.2420646091 1013131.3897969428 61.3 52 13 40 4692
627704.5001042152 1013092.5778828469 40.3 52 13 44 4692
627705.8609317449 1013110.1314997786 81.5 52 13 48 4692
627711.8106863218 1013071.2151190165 85.0 52 13 52 4692
627702.3207631048 1013059.6729659082 104.3 52 13 56 4692
627694.4472737047 1013054.593973447 106.4 52 14 00 4692
627660.0775814652 1013040.052124735 79.5 52 14 08 4692
627655.1689000071 1013035.6351449874 93.3 52 14 12 4692
627665.0566462462 1013046.492966323 100.2 52 14 16 4692
627665.3546001274 1013042.7009976124 95.8 52 14 20 4692
627662.5003131076 1013041.8403047067 78.2 52 14 24 4692
627669.0113527162 1013050.2765542232 100.3 52 14 28 4692
627668.1377647439 1013058.7774177941 120.2 52 14 32 4692
627654.2934581261 1013044.7110240681 84.1 52 14 36 4692
627663.1403550471 1013044.4078528858 90.0 52 14 40 4692
627662.2083124266 1013047.1914858406 90.0 52 14 44 4692
627667.6184671035 1013052.8485945655 99.3 52 14 48 4692
627660.9844459785 1013045.0643764228 90.2 52 14 52 4692
627660.3537875596 1013053.2011069681 94.8 52 14 56 4692
627675.6728868714 1013046.1402220699 99.5 52 15 00 4692
627692.3618825538 1013050.4293875628 131.2 52 15 08 4692
627673.5032744844 1013047.6371169072 86.2 52 15 12 4692
627675.4582331782 1013051.3589558776 115.6 52 15 16 4692
627673.7774414308 1013051.2097714503 109.9 52 15 20 4692
627668.3559653529 1013049.0580455057 105.2 52 15 24 4692
627671.0993063598 1013046.8442264892 109.1 52 15 28 4692
627662.580864842 1013044.118535086 85.1 52 15 32 4692
627650.5958595176 1013046.3799151748 94.1 52 15 36 4692
627665.6708410257 1013043.4539703435 95.9 52 15 40 4692
627656.8988889653 1013047.7714761173 105.6 52 15 44 4692
627569.6210985878 1013018.8049791 -17.7 52 15 48 4692
627659.3338230652 1013049.1837196884 73.4 52 15 52 4692
627659.5825200784 1013030.0208221702 83.2 52 15 56 4692
627687.0103715088 1012992.6003080653 95.1 52 16 00 4692
627713.6763011232 1012932.5303379511 74.8 52 16 08 4692
627641.4641938115 1012889.8450422765 112.9 52 16 12 4692
627561.6228823836 1012885.506901136 128.7 52 16 16 4692
627556.1111421196 1012928.3503254708 121.3 52 16 20 4692
627521.8584251181 1012972.8813781205 122.2 52 16 24 4692
627508.8039713191 1012959.2046279834 128.6 52 16 28 4692
627507.7786796609 1012963.6466778241 129.5 52 16 32 4692
627513.9599316668 1012978.9489133054 104.4 52 16 36 4692
627505.9118886418 1012993.906681371 114.6 52 16 40 4692
627498.5796345872 1012998.1735747239 118.4 52 16 44 4692
627432.8770366313 1012988.2637582262 118.8 52 16 48 4692
627405.5133407782 1012992.2228188507 115.6 52 16 52 4692
627386.2457130244 1012993.5872178295 99.1 52 16 56 4692
627389.884665483 1012996.4740501652 120.6 52 17 00 4692
627376.2306808128 1012988.1033031096 152.3 52 17 08 4692
627373.881028386 1012984.0927007361 148.2 52 17 12 4692
627373.8717286364 1012986.978834143 148.9 52 17 16 4692
627371.1330351742 1012987.7551344557 152.0 52 17 20 4692
627368.453396932 1012990.665837955 145.8 52 17 24 4692
627373.6406613378 1012990.4835064138 131.9 52 17 28 4692
627365.457969398 1012999.5026640844 141.6 52 17 32 4692
627351.7390204648 1013007.8847328817 152.8 52 17 36 4692
627307.4568096786 1013051.5210908224 154.3 52 17 40 4692
627282.8088915342 1013072.0761178298 145.9 52 17 44 4692
627274.6177549758 1013076.9042449687 144.9 52 17 48 4692
627248.4077230348 1013063.870830145 135.0 52 17 52 4692
627249.9921198261 1013059.8286687038 138.9 52 17 56 4692
627273.1000846033 1013077.2863913901 140.2 52 18 00 4692
627297.4221553567 1013069.1927829124 157.5 53 06 08 4692
627277.8853158521 1013092.7499577567 163.0 53 06 12 4692
627271.089596266 1013087.3870157328 114.0 53 06 16 4692
627282.65838406 1013074.4531234732 97.5 53 06 20 4692
627274.8401626918 1013093.149301554 131.6 53 06 24 4692
627307.4876962365 1013140.8706016515 121.0 53 06 28 4692
627311.8401109889 1013157.6486946084 94.2 53 06 32 4692
627317.1596425567 1013157.3340873838 110.8 53 06 36 4692
627321.3957575551 1013162.4565740711 108.5 53 06 40 4692
627222.5909028309 1013246.1577923888 112.1 53 06 44 4692
627254.0742604272 1013174.2156735117 104.7 53 06 48 4692
627250.5027799772 1013170.8535717909 112.2 53 06 52 4692
627251.8498278176 1013168.8563939044 106.3 53 06 56 4692
627194.5500888516 1013160.1129830499 126.7 53 07 00 4692
627158.6603289889 1013232.0741325206 120.0 53 07 08 4692
627158.4208583527 1013231.3656441894 116.5 53 07 12 4692
627149.252927338 1013211.9291980026 119.6 53 07 16 4692
627087.7560771632 1013165.442237079 134.4 53 07 20 4692
627087.2882300885 1013170.8260215502 139.2 53 07 24 4692
627078.8771533134 1013168.8859268852 137.6 53 07 28 4692
627080.1788153728 1013167.3309218301 139.4 53 07 32 4692
627083.7699714783 1013164.5779469446 132.3 53 07 36 4692
627079.8632388327 1013162.950904395 133.3 53 07 40 4692
627078.9327696078 1013165.2590529443 132.6 53 07 44 4692
627079.3533961421 1013171.1433080724 136.6 53 07 48 4692
627079.4451800693 1013169.9382716279 134.4 53 07 52 4692
627074.8918559904 1013154.0995080293 123.9 53 07 56 4692
627045.324399662 1013153.1529811514 124.8 53 08 00 4692
626996.993956279 1013184.645893633 112.7 53 08 08 4692
626989.0551060973 1013196.4746510246 121.6 53 08 12 4692
626970.7200770068 1013208.5906923305 118.0 53 08 16 4692
626936.4968067011 1013244.242596948 118.0 53 08 20 4692
626869.482516334 1013239.139732904 121.0 53 08 24 4692
626866.1588544202 1013281.8021963752 106.3 53 08 28 4692
626818.225484788 1013302.6586937658 101.2 53 08 32 4692
626771.2641525173 1013325.3871765104 107.9 53 08 36 4692
626730.4336394409 1013348.3897059193 104.7 53 08 40 4692
626686.4898609511 1013365.6431493809 98.9 53 08 44 4692
626671.7638793305 1013369.4662658205 97.7 53 08 48 4692
626677.7803190597 1013371.1221481882 101.7 53 08 52 4692
626673.934316196 1013371.1208767293 96.3 53 08 56 4692
626676.4337346419 1013369.5586427527 99.8 53 09 00 4692
626675.995261526 1013358.9414856078 104.3 53 09 08 4692
626676.8582493282 1013350.2526056475 98.4 53 09 12 4692
626676.7342556869 1013354.6533217736 93.8 53 09 16 4692
626678.9228780944 1013354.063202039 106.4 53 09 20 4692
626676.7497454176 1013356.676999053 105.4 53 09 32 4692
626679.7030593256 1013357.4937062825 105.7 53 09 36 4692
626676.8039070863 1013360.3484534037 105.3 53 09 40 4692
626676.047510574 1013356.3540636899 102.1 53 09 44 4692
626673.8582496725 1013360.571229905 102.9 53 09 48 4692
626683.5140079249 1013354.7192890061 86.2 53 09 52 4692
626675.3448148819 1013356.174881831 103.2 53 09 56 4692
626678.2139432133 1013355.8302212409 98.8 53 10 00 4692
626674.4943415351 1013357.5322985877 92.7 53 10 08 4692
626677.7529941348 1013355.6518143344 101.9 53 10 12 4692
626673.2992196267 1013360.1381729156 87.7 53 10 16 4692
626675.4015644717 1013359.0391050264 77.5 53 10 17 4692
626676.7901189567 1013357.7939940011 111.0 53 10 20 4692
626677.1321789911 1013360.7807706821 101.1 53 10 24 4692
626678.7372781878 1013357.1146356034 104.7 53 10 28 4692
626677.5195418315 1013356.4914795927 101.9 53 10 32 4692
626676.9556551769 1013357.5733631859 104.9 53 10 36 4692
626675.7476311264 1013357.3483290462 105.6 53 10 40 4692
626676.79657075 1013355.7814451345 105.7 53 10 44 4692
626677.5552368973 1013355.6401222899 105.1 53 10 48 4692
626678.2566209518 1013356.2284487399 103.7 53 10 52 4692
626679.6558439711 1013358.510897776 98.5 53 10 56 4692
626677.2381661262 1013355.1414924754 99.2 53 11 00 4692
626678.0906593191 1013356.5817750812 104.6 53 11 08 4692
626678.9388640185 1013355.9320678804 99.6 53 11 12 4692
626675.8021481475 1013357.4812007077 96.6 53 11 16 4692
626677.6960665415 1013356.2708840065 104.2 53 11 20 4692
626678.6272161143 1013357.1695731353 101.0 53 11 24 4692
626677.6086549765 1013356.1157907397 109.1 53 11 28 4692
626676.7218129517 1013358.5346660154 97.5 53 11 32 4692
626668.2842892574 1013364.8549525975 93.8 53 11 36 4692
626668.8088647769 1013369.1803411974 94.7 53 11 40 4692
626658.3213919597 1013380.8240497699 95.4 53 11 44 4692
626662.6400046226 1013387.6496664982 92.2 53 11 48 4692
626688.9416708336 1013423.4847428357 87.0 53 11 52 4692
626690.4808982646 1013433.5082943545 53.9 53 11 57 4692
626722.2976920614 1013442.2687976653 35.1 53 12 01 4692
626700.8120064345 1013460.3461968793 78.6 53 12 04 4692
626691.0209706794 1013559.7932510043 102.9 53 12 08 4692
626687.40212608 1013560.9206281016 104.8 53 12 12 4692
626691.6992433608 1013557.3073589661 106.0 53 12 16 4692
626689.5509285916 1013562.4645913122 100.2 53 12 20 4692
626692.6557639365 1013560.5725588165 93.4 53 12 24 4692
626685.8700227276 1013558.9584356874 100.2 53 12 28 4692
626681.1960481228 1013553.3038294853 94.7 53 12 32 4692
626687.7202939948 1013561.0764614379 96.3 53 12 36 4692
626701.5567170004 1013577.6305415913 92.8 53 12 40 4692
626708.0274666745 1013584.9496252901 95.8 53 12 44 4692
626717.7505159735 1013585.5115989918 91.0 53 12 48 4692
626718.5990646427 1013588.1793173793 92.7 53 12 52 4692
626732.1501954572 1013573.7698785741 86.5 53 12 56 4692
626747.5484585374 1013596.7094993509 74.5 53 13 00 4692
626749.6849046239 1013591.8286832209 79.1 53 13 08 4692
626745.5157785902 1013596.6476874744 81.4 53 13 12 4692
626755.5380256606 1013610.1264666728 91.7 53 13 16 4692
626749.345323994 1013605.1968104903 88.3 53 13 20 4692
626750.6788249832 1013603.9847003089 87.8 53 13 24 4692
626750.4408559689 1013609.6567310562 90.9 53 13 28 4692
626760.4888931795 1013615.0963716181 101.4 53 13 32 4692
626750.1110106945 1013602.8660125876 81.8 53 13 36 4692
626750.7955110446 1013605.2899279499 84.3 53 13 40 4692
626744.0358520506 1013609.2491486414 82.5 53 13 44 4692
626746.2154703587 1013604.6117486653 85.7 53 13 48 4692
626749.989631422 1013606.448440568 93.5 53 13 52 4692
626751.7421666082 1013621.9021992591 106.5 53 13 56 4692
626747.474313164 1013606.1196861332 97.5 53 14 00 4692
626758.7235551539 1013613.9074927293 101.0 53 14 08 4692
626754.8570590409 1013599.7518039887 93.6 53 14 13 4692
626754.1393496832 1013607.6781435453 84.0 53 14 16 4692
626771.3629620865 1013633.6424898583 131.4 53 14 24 4692
626758.0114479077 1013609.8137186639 88.4 53 14 28 4692
626753.156474189 1013612.629009164 84.6 53 14 32 4692
626729.0120147679 1013630.5872730204 57.3 53 14 36 4692
626728.8298130581 1013618.8761841228 58.4 53 14 40 4692
626728.6280150936 1013633.8260579649 75.9 53 14 53 4692
626730.2864841333 1013634.074656058 76.7 53 14 56 4692
626737.3783256304 1013636.1763262162 90.7 53 15 00 4692
626740.6773828898 1013642.2467373505 101.9 53 15 08 4692
626736.9213180229 1013634.7704841151 85.0 53 15 12 4692
626737.6544286293 1013632.3179427319 84.4 53 15 16 4692
626716.3134349026 1013687.5288118558 83.6 53 15 20 4692
626703.454623997 1013746.4713498377 76.2 53 15 24 4692
626704.4574114067 1013742.1619162331 90.0 53 15 28 4692
626699.8016386405 1013741.118580881 84.4 53 15 32 4692
626687.0601757484 1013749.7804200081 78.8 53 15 36 4692
626670.6709389861 1013802.8619161301 75.1 53 15 40 4692
626672.0507608076 1013883.1369223896 86.8 53 15 44 4692
626668.0727588512 1013869.4895547058 44.6 53 15 48 4692
626686.9967310327 1013903.1668088952 74.4 53 15 52 4692
626698.3348436014 1013890.077242014 73.9 53 15 56 4692
626698.6063149184 1013908.21336128 56.6 53 16 00 4692
626715.1032518304 1013992.8053038078 70.2 53 16 08 4692
626733.0692107138 1014009.9587488313 67.6 53 16 12 4692
626748.2924532983 1014015.4702997009 82.0 53 16 16 4692
626740.3351701961 1014019.4146107942 64.9 53 16 20 4692
626741.0070181093 1014018.9302115705 63.2 53 16 24 4692
626751.0586326543 1014040.3377442245 65.1 53 16 28 4692
626832.911560102 1014060.7815687584 64.3 53 16 32 4692
626870.3354790289 1014085.5281482217 69.1 53 16 36 4692
626886.7800216705 1014124.726613315 57.6 53 16 40 4692
626903.3683277429 1014139.6972836714 67.8 53 16 44 4692
626888.342798555 1014168.4221348928 65.1 53 16 48 4692
626903.6069122212 1014185.1246721142 57.8 53 16 52 4692
626902.114671162 1014181.0283835618 58.0 53 16 56 4692
626924.7843640223 1014235.5070469145 44.8 53 17 00 4692
626896.0077834207 1014303.2780261863 82.3 53 17 08 4692
626891.248358251 1014355.0145776304 86.3 53 17 12 4692
626892.7206812914 1014361.8863828356 91.7 53 17 16 4692
626877.4347541434 1014375.9252526258 76.5 53 17 20 4692
626879.0697987571 1014380.0330583496 84.2 53 17 24 4692
626872.8780910573 1014391.9337754897 102.1 53 17 28 4692
626832.4623340546 1014385.3238584909 80.1 53 17 32 4692
626794.077215912 1014369.1331479002 78.4 53 17 36 4692
626764.8210057103 1014370.7863646814 79.2 53 17 40 4692
626768.5541894434 1014371.6719417233 77.2 53 17 44 4692
626764.0300801867 1014350.1826158074 72.6 53 17 48 4692
626784.6264018749 1014318.0807940958 89.7 53 17 52 4692
626782.3872348135 1014320.738600991 85.9 53 17 56 4692
626781.0109494398 1014307.9068040828 88.9 53 18 00 4692
626775.376885408 1014426.7409937927 65.8 54 06 08 4692
626775.0826763122 1014422.5490350572 77.7 54 06 12 4692
626771.8563748718 1014421.2227613005 60.6 54 06 16 4692
626773.5354298656 1014428.7365927831 76.1 54 06 20 4692
626778.0038437024 1014426.5061530883 66.3 54 06 24 4692
626776.8556953949 1014424.7552882214 74.4 54 06 28 4692
626778.7163298156 1014416.7883855525 48.8 54 06 32 4692
626771.131906697 1014414.1432609783 54.3 54 06 36 4692
626769.5021861938 1014401.53181167 72.2 54 06 40 4692
626786.9589465592 1014375.3028116811 62.7 54 06 44 4692
626780.9875365795 1014380.2044802024 77.5 54 06 48 4692
626783.6240655851 1014380.4119935782 64.5 54 06 52 4692
626838.6134075306 1014423.682007098 72.7 54 06 56 4692
626876.9677095076 1014473.3676192613 65.8 54 07 00 4692
626858.3990523155 1014520.7471303545 92.5 54 07 08 4692
626856.6562167143 1014529.6654052513 82.5 54 07 12 4692
626858.3657794138 1014527.6804442621 83.1 54 07 16 4692
626853.0182697434 1014523.085208794 86.1 54 07 20 4692
626860.729070789 1014517.1717990368 87.6 54 07 24 4692
626865.9030447569 1014521.0587601324 96.6 54 07 28 4692
626903.4066968873 1014544.7772888269 85.8 54 07 32 4692
626942.5420813608 1014539.4515033115 93.0 54 07 36 4692
627000.0396828526 1014506.5617210595 110.2 54 07 40 4692
627029.6464942124 1014488.1346905766 95.3 54 07 44 4692
627018.7516368228 1014483.0018476525 108.1 54 07 48 4692
627045.4451970737 1014434.2773323981 93.9 54 07 52 4692
627050.2576903382 1014427.5695010861 101.3 54 07 56 4692
627051.7342117953 1014422.8856217951 101.3 54 08 00 4692
627038.332827351 1014428.3604775012 105.4 54 08 08 4692
627039.0603883761 1014431.049935774 104.5 54 08 12 4692
627058.7096786351 1014426.9553368305 99.7 54 08 16 4692
627047.704380708 1014425.4049546 98.7 54 08 20 4692
627060.3179696329 1014405.2313589411 99.5 54 08 24 4692
627050.6212488152 1014406.7925131504 90.7 54 08 28 4692
627050.4213352195 1014404.0384043829 99.3 54 08 32 4692
627045.6054238109 1014398.151056489 101.3 54 08 36 4692
627054.4768979669 1014407.1808984288 93.3 54 08 40 4692
627041.2538371782 1014415.2881540294 70.2 54 08 44 4692
627059.89731081 1014409.6090101243 99.7 54 08 48 4692
627055.4793515429 1014406.3990004029 93.3 54 08 52 4692
627053.3641451036 1014404.6781876059 99.0 54 08 56 4692
627058.4360578362 1014409.549016095 98.8 54 09 00 4692
627051.5482603787 1014412.3798341952 95.6 54 09 08 4692
627056.9438792075 1014405.4416602096 93.5 54 09 12 4692
627052.6405511472 1014407.5841372409 91.7 54 09 16 4692
627046.91486028 1014414.6539464539 80.3 54 09 20 4692
627053.9100929601 1014409.1695309257 95.1 54 09 24 4692
627053.8818977473 1014407.6876556043 95.3 54 09 28 4692
627057.9739584621 1014406.3185652456 89.2 54 09 32 4692
627054.2044253144 1014409.9003124915 95.9 54 09 36 4692
627039.7578578346 1014408.9470519018 71.4 54 09 40 4692
627055.7458755242 1014419.183014812 98.0 54 09 44 4692
627053.2317331362 1014411.6775347712 95.2 54 09 48 4692
627051.1987993318 1014415.1211166424 90.8 54 09 52 4692
627055.0435804542 1014398.4025959467 102.2 54 09 56 4692
627059.8442619878 1014395.3660143259 96.7 54 10 00 4692
627045.1198670345 1014347.5808331528 83.5 54 10 08 4692
627053.316829809 1014306.7143851767 83.6 54 10 12 4692
627051.8943214617 1014311.6859489646 85.1 54 10 16 4692
627023.1526013863 1014290.0191207392 85.5 54 10 20 4692
627030.8256905846 1014254.8680187602 59.8 54 10 24 4692
627075.9811747039 1014236.457857347 64.2 54 10 28 4692
627094.804085436 1014236.507389431 63.9 54 10 32 4692
627136.0993784752 1014232.7810733133 70.3 54 10 36 4692
627151.3647777573 1014177.3959984791 74.8 54 10 40 4692
627184.7876682096 1014127.3994113734 72.3 54 10 44 4692
627189.5917437029 1014096.0320069895 76.4 54 10 48 4692
627243.2782899198 1014045.7579295118 73.6 54 10 52 4692
627252.8043914252 1014032.3862112395 71.8 54 10 56 4692
627252.500959151 1014031.0693196653 71.7 54 11 00 4692
627247.8881336706 1013999.6605133181 50.7 54 11 09 4692
627248.9403320125 1013962.9841916006 67.7 54 11 12 4692
627255.0505581353 1013962.7827185753 64.9 54 11 16 4692
627262.1613642614 1013962.3854251168 70.7 54 11 20 4692
627261.9790882055 1013960.9804591874 72.0 54 11 24 4692
627269.3428404062 1013960.5176335064 85.2 54 11 28 4692
627263.1397052634 1013958.8610443816 83.7 54 11 32 4692
627249.4645590668 1013953.752368744 59.7 54 11 36 4692
627257.6477470346 1013958.1577444745 71.1 54 11 40 4692
627258.3880989925 1013956.877390775 64.4 54 11 44 4692
627255.5100593343 1013959.9975584454 75.9 54 11 48 4692
627249.5247881098 1013955.5218585298 45.0 54 11 52 4692
627260.9866003523 1013968.8948595313 65.5 54 11 56 4692
627252.1611608576 1013962.607536497 64.0 54 12 00 4692
627267.8189676108 1013973.0636648173 82.5 54 12 08 4692
627257.4545313139 1013960.1475795886 55.8 54 12 12 4692
627253.9865291489 1013958.7983744636 51.8 54 12 16 4692
627254.4911951264 1013955.6373845204 57.5 54 12 20 4692
627256.2419171719 1013957.9431104521 60.7 54 12 24 4692
627260.0832635959 1013966.1937724259 76.1 54 12 28 4692
627256.5022653554 1013962.4003630927 48.7 54 12 32 4692
627252.9780745755 1013961.4380104146 62.6 54 12 36 4692
627253.6774304766 1013959.2397023824 64.2 54 12 40 4692
627250.4114503283 1013963.3980815269 61.3 54 12 44 4692
627254.3935251262 1013958.6669887602 62.2 54 12 48 4692
627249.7367654713 1013961.3501593448 73.0 54 12 52 4692
627255.3493542956 1013955.3084068516 56.9 54 12 56 4692
627211.4530756075 1013951.0976022597 89.3 54 13 00 4692
627194.8745722219 1013881.908986028 80.9 54 13 08 4692
627175.167027345 1013852.8180215247 85.2 54 13 12 4692
627094.2061613345 1013824.8126581893 92.4 54 13 16 4692
627094.284823464 1013824.2710648071 105.3 54 13 20 4692
627097.735896355 1013817.227107276 95.9 54 13 24 4692
627100.7074602993 1013812.3600510106 88.8 54 13 28 4692
627097.1785071997 1013819.7023262597 105.9 54 13 32 4692
627091.5497002867 1013813.7128440778 93.3 54 13 36 4692
627079.113655268 1013826.4670416798 99.0 54 13 40 4692
627094.8975947424 1013814.8294260999 87.7 54 13 44 4692
627110.1009075602 1013816.3048447621 83.9 54 13 48 4692
627090.5758042346 1013805.6151871862 101.4 54 13 52 4692
627099.3067705038 1013817.3759174491 84.7 54 13 56 4692
627102.0969265697 1013817.6613484587 94.0 54 14 00 4692
627083.5440889555 1013812.1610682039 110.3 54 14 08 4692
627089.1289143655 1013814.7445152879 99.0 54 14 12 4692
627108.0198787956 1013814.1971100376 108.2 54 14 16 4692
627096.0319299694 1013810.6310012845 134.2 54 14 20 4692
627089.2666038853 1013816.3483816301 117.1 54 14 24 4692
627083.9208187888 1013814.6061185754 133.8 54 14 28 4692
627087.858200757 1013820.3468790258 131.6 54 14 32 4692
627085.0838185659 1013808.3288646145 126.1 54 14 36 4692
627100.4648905275 1013816.0305570086 96.8 54 14 40 4692
627080.9246038086 1013803.2287602427 91.7 54 14 44 4692
627085.0893573937 1013813.43772073 107.1 54 14 48 4692
627087.3290398443 1013807.2192215812 108.6 54 14 52 4692
627126.8647724894 1013821.1358944743 145.3 54 14 56 4692
627083.5954728496 1013813.267042684 82.1 54 15 00 4692
627091.3562765421 1013757.7140456878 94.7 54 15 08 4692
627093.167449327 1013730.992466238 103.1 54 15 12 4692
627055.28096268 1013679.1629554108 98.8 54 15 16 4692
627052.9095978641 1013685.3257422665 114.0 54 15 20 4692
627046.1630399812 1013678.3706214239 119.3 54 15 24 4692
627047.3157890105 1013685.5289127604 118.2 54 15 28 4692
627039.5371007387 1013691.9949939563 117.9 54 15 32 4692
627032.4497586957 1013674.8321635355 114.7 54 15 36 4692
627046.492410411 1013668.2092965816 87.6 54 15 40 4692
627048.9520723188 1013665.3421040203 80.8 54 15 44 4692
627045.851991649 1013655.501492296 88.9 54 15 48 4692
627054.09768982 1013609.7475217386 85.5 54 15 52 4692
627071.7202899981 1013593.6041008026 86.8 54 15 56 4692
627155.69032872 1013554.0098585859 91.0 54 16 00 4692
627221.194666671 1013584.2434689552 66.0 54 16 08 4692
627223.07622307 1013590.2872481438 79.2 54 16 12 4692
627226.0993807645 1013593.2937277468 81.8 54 16 16 4692
627229.9338696104 1013603.689628382 83.9 54 16 20 4692
627231.2419009531 1013600.1552504287 80.8 54 16 24 4692
627230.1584976296 1013598.7694992974 82.3 54 16 28 4692
627226.6239254916 1013597.6080742171 81.2 54 16 32 4692
627231.4957389463 1013599.813266976 78.1 54 16 36 4692
627219.6140052647 1013583.7186483297 70.6 54 16 40 4692
627209.3550505457 1013544.827468878 86.4 54 16 44 4692
627199.3612079675 1013467.9525967538 98.9 54 16 48 4692
627218.1303095253 1013399.5081323572 97.3 54 16 52 4692
627217.9160225056 1013397.8044959651 97.9 54 16 56 4692
627213.5221118743 1013359.7836815135 85.8 54 17 00 4692
627251.971850628 1013229.9306402855 109.7 54 17 08 4692
627283.1278867809 1013143.6340755991 131.5 54 17 12 4692
627282.3375446319 1013139.9602428818 138.4 54 17 16 4692
627280.6849512075 1013141.2929503674 134.1 54 17 20 4692
627281.9825223783 1013134.1867740925 131.9 54 17 24 4692
627283.6276223958 1013138.5931937094 134.9 54 17 28 4692
627281.6719632854 1013141.9043241319 141.9 54 17 32 4692
627279.6655787888 1013140.4934848101 136.5 54 17 36 4692
627281.2546213898 1013131.5968358185 135.7 54 17 40 4692
627277.7611855338 1013114.2354355437 126.0 54 17 44 4692
627280.8648382608 1013071.782347195 143.7 54 17 48 4692
627282.1673308068 1013069.9730139454 151.5 54 17 52 4692
627274.6046438734 1013074.1507373019 135.2 54 17 56 4692
627280.9361678287 1013073.5186977047 152.4 54 18 00 4692
627281.2785449217 1012943.2996848676 157.2 55 06 08 4692
627255.637610979 1012934.3706618852 150.7 55 06 12 4692
627251.3747637313 1012937.5416704032 162.7 55 06 16 4692
627280.4123439298 1012939.2938660431 159.1 55 06 20 4692
627285.0815590597 1012936.1905173672 156.0 55 06 24 4692
627281.1072260091 1012938.4888625287 159.3 55 06 28 4692
627273.9884519099 1012937.8909218601 179.1 55 06 32 4692
627301.9474474527 1012970.8787778217 151.2 55 06 36 4692
627298.0956795163 1012969.2408340854 154.3 55 06 40 4692
627342.953810812 1012978.806811691 147.9 55 06 44 4692
627380.3899338194 1012986.3916424251 139.6 55 06 48 4692
627368.2123455055 1012987.0380054386 152.0 55 06 52 4692
627370.475571414 1012987.1779949615 152.8 55 06 56 4692
627377.584360234 1012990.8721894166 130.2 55 07 00 4692
627385.5975764069 1012996.9357327778 137.7 55 07 08 4692
627370.577433816 1012996.4892409614 127.9 55 07 12 4692
627381.3855941751 1012980.9100344926 153.6 55 07 16 4692
627362.4410456035 1012987.7271284712 144.4 55 07 20 4692
627373.4586510079 1012985.5841828699 137.2 55 07 24 4692
627371.6761946146 1012989.7031097027 140.6 55 07 28 4692
627374.8705236241 1012980.5241237067 135.8 55 07 32 4692
627374.9443796031 1012981.4753580493 136.4 55 07 36 4692
627376.4385034033 1012971.3509554045 123.7 55 07 40 4692
627373.0216364226 1012984.7976498209 136.0 55 07 44 4692
627366.2773378547 1012983.9355035941 132.5 55 07 48 4692
627368.8993610314 1012981.8539715554 139.1 55 07 52 4692
627370.1117780821 1012980.7188940817 119.9 55 07 56 4692
627364.1724469155 1012975.5798585386 155.4 55 08 00 4692
627370.8129113656 1012981.3846390387 146.1 55 08 08 4692
627372.2533814008 1012981.0907118192 137.5 55 08 12 4692
627374.5329692927 1012986.383827562 130.1 55 08 16 4692
627367.0953464902 1012975.611392247 130.3 55 08 20 4692
627374.5954948453 1012973.7999144092 146.2 55 08 24 4692
627374.3536384684 1012973.8323093924 134.9 55 08 28 4692
627369.7395905076 1012980.2753709737 131.1 55 08 32 4692
627367.1564830932 1012980.5103261714 112.2 55 08 36 4692
627368.5669738975 1012986.1102679303 133.1 55 08 40 4692
627382.1515543213 1012981.9187895954 144.2 55 08 44 4692
627381.698562576 1012982.6803385961 170.2 55 08 48 4692
627370.9653623361 1012981.8163960421 150.0 55 08 52 4692
627379.6798157645 1012978.2837687606 149.0 55 08 56 4692
627370.8695857768 1012977.4370809961 129.8 55 09 00 4692
627376.9683924207 1012991.0581922261 143.7 55 09 08 4692
627379.7903980329 1012991.7086553661 141.8 55 09 12 4692
627378.9962250835 1012992.6349764261 141.6 55 09 16 4692
627381.117596544 1012992.4648827664 145.4 55 09 20 4692
627393.2328159518 1012990.7125131192 125.2 55 09 24 4692
627415.0550852971 1012967.2622704601 125.2 55 09 28 4692
627409.8470515191 1012967.0685546953 131.0 55 09 32 4692
627436.7359015766 1012991.1070717773 113.3 55 09 36 4692
627486.7607754653 1012969.3622763657 127.7 55 09 40 4692
627505.9099721853 1012963.839696123 129.4 55 09 44 4692
627549.0616136079 1012930.130050617 126.6 55 09 48 4692
627555.8907702295 1012887.666852404 137.0 55 09 52 4692
627563.7355254283 1012867.6106485386 127.6 55 09 56 4692
627556.40727415 1012863.8161904628 129.6 55 10 00 4692
627596.2588437138 1012766.522891102 118.3 55 10 08 4692
627592.9509704155 1012759.7888891845 123.8 55 10 12 4692
627618.3500516654 1012734.7247309393 117.4 55 10 16 4692
627632.8102579544 1012721.4353304947 104.4 55 10 20 4692
627670.3978532819 1012682.1787614456 131.5 55 10 24 4692
627666.5626122769 1012634.5722910806 130.4 55 10 29 4692
627665.002500013 1012634.4787894719 126.0 55 10 32 4692
627660.5624286319 1012627.8517081293 119.1 55 10 36 4692
627655.9985935916 1012598.2897177851 115.8 55 10 40 4692
627669.4547268129 1012576.0731912995 105.1 55 10 44 4692
627690.3929574286 1012523.6369053626 109.9 55 10 48 4692
627659.1241898034 1012498.0912604474 89.6 55 10 52 4692
627653.7959415668 1012487.4582817295 99.0 55 10 56 4692
627635.128222079 1012483.3175923863 102.0 55 11 00 4692
627612.9379661179 1012423.1673139065 125.5 55 11 08 4692
627628.5010744964 1012405.2591709621 92.0 55 11 12 4692
627607.0649269216 1012404.2721846274 85.2 55 11 16 4692
627572.3903317096 1012340.9743431893 101.1 55 11 20 4692
627499.0258721863 1012300.8401824449 92.5 55 11 24 4692
627479.9139158682 1012291.3017968207 108.3 55 11 28 4692
627478.0762584681 1012302.309739414 109.0 55 11 32 4692
627483.0384304309 1012286.755930119 118.7 55 11 36 4692
627528.0603968223 1012245.742805445 102.4 55 11 40 4692
627536.8419370602 1012207.8197206483 103.6 55 11 44 4692
627536.8186744784 1012180.9484660672 92.4 55 11 48 4692
627529.1330974726 1012172.0550957975 81.7 55 11 52 4692
627520.4600504902 1012172.9117869299 96.6 55 11 56 4692
627518.4053264377 1012176.2557676465 99.3 55 12 00 4692
627515.5919585036 1012172.90715404 90.9 55 12 08 4692
627519.0796624192 1012171.6024820141 109.9 55 12 12 4692
627508.2747213288 1012175.880314429 96.7 55 12 16 4692
627516.4132456125 1012177.2114012236 95.9 55 12 20 4692
627511.3391231619 1012169.5317850009 96.7 55 12 24 4692
627514.2757925524 1012172.1288449984 95.7 55 12 28 4692
627514.6047336508 1012168.9451730935 84.4 55 12 32 4692
627513.0576006881 1012161.4096220572 59.2 55 12 37 4692
627513.7216102382 1012173.5977857858 93.2 55 12 41 4692
627512.0134215868 1012175.1182975849 101.2 55 12 44 4692
627512.4998985031 1012187.8366778453 165.3 55 12 49 4692
627501.9611870133 1012170.8838226913 91.9 55 12 52 4692
627515.0821123378 1012170.8487045518 87.3 55 12 56 4692
627515.2798758338 1012170.8604000715 87.4 55 13 00 4692
627510.5518586647 1012171.7187509238 96.4 55 13 08 4692
627513.9528148721 1012176.8717278979 93.7 55 13 12 4692
627515.9872604614 1012169.5909988516 86.8 55 13 16 4692
627515.8878240155 1012179.9852902229 114.3 55 13 20 4692
627518.1814863856 1012177.5156693067 101.9 55 13 24 4692
627511.4569825154 1012173.8779972091 92.2 55 13 28 4692
627523.244376358 1012164.8151759173 91.6 55 13 32 4692
627513.1239958307 1012171.4948210558 81.8 55 13 36 4692
627520.4885508565 1012170.888246882 128.0 55 13 40 4692
627515.2559153399 1012164.6567300482 98.1 55 13 44 4692
627514.7620845507 1012150.8104001732 108.8 55 13 48 4692
627520.0449150573 1012155.106911332 133.2 55 13 52 4692
627503.8315462415 1012163.3703444272 94.8 55 13 56 4692
627506.314537145 1012156.7103141141 95.5 55 14 00 4692
627518.1298103713 1012173.0922636145 98.0 55 14 08 4692
627516.9011765501 1012165.6130293846 105.6 55 14 12 4692
627516.1232966442 1012168.297639887 98.9 55 14 16 4692
627515.9090086247 1012166.5940021562 100.0 55 14 20 4692
627511.0231081556 1012165.295515119 94.1 55 14 24 4692
627514.8170144942 1012167.8621637324 100.2 55 14 28 4692
627514.1569241483 1012164.6863621597 96.0 55 14 32 4692
627514.4916731587 1012169.928979376 93.6 55 14 36 4692
627516.2156024863 1012170.3436854822 101.5 55 14 40 4692
627512.537928936 1012165.8090699487 100.7 55 14 44 4692
627515.7663431006 1012169.9441459243 100.0 55 14 48 4692
627504.886450645 1012156.5619563197 112.5 55 14 52 4692
627519.7071560597 1012167.8447513235 95.8 55 14 56 4692
627513.3627692871 1012165.6016246212 106.1 55 15 00 4692
627517.0646547953 1012166.0337640183 97.9 55 15 08 4692
627515.761402105 1012164.6583593035 98.3 55 15 12 4692
627508.2652651242 1012165.1760456304 86.4 55 15 16 4692
627518.4743275027 1012165.0762531733 96.7 55 15 20 4692
627516.3841907589 1012162.3602823286 107.4 55 15 24 4692
627514.510097977 1012174.4407426119 93.0 55 15 28 4692
627498.2338948484 1012188.5647658897 97.9 55 15 32 4692
627470.4125853118 1012228.6491775075 100.1 55 15 36 4692
627428.9816411634 1012280.6435602363 118.4 55 15 40 4692
627383.5624316729 1012284.6772354337 124.9 55 15 44 4692
627336.2356257231 1012266.842973281 118.5 55 15 48 4692
627330.9648063786 1012265.6427913683 120.6 55 15 52 4692
627349.244565499 1012328.8875749022 117.5 55 15 56 4692
627296.3606964026 1012351.0104632609 121.9 55 16 00 4692
627281.3472788368 1012351.8136227991 135.9 55 16 08 4692
627270.1175756515 1012365.1798941855 135.7 55 16 12 4692
627256.8104001876 1012402.6350614092 131.1 55 16 16 4692
627264.2216221455 1012407.9999642556 135.0 55 16 20 4692
627264.5519146039 1012414.6358810461 132.0 55 16 24 4692
627243.6597088367 1012449.5232843958 147.8 55 16 28 4692
627248.1214663704 1012473.3457062622 148.6 55 16 32 4692
627230.8451464837 1012490.9941264428 149.7 55 16 36 4692
627241.5702076693 1012508.091262934 161.9 55 16 40 4692
627203.2528220891 1012542.0269145475 153.5 55 16 44 4692
627206.8540950831 1012553.2292839468 161.0 55 16 48 4692
627256.0411073972 1012597.3213236684 162.3 55 16 52 4692
627266.1583347085 1012642.7915792188 160.2 55 16 56 4692
627295.6813017433 1012657.6823343416 160.7 55 17 00 4692
627317.4886594659 1012690.0864074046 148.6 55 17 08 4692
627293.4500653843 1012743.1763246941 136.6 55 17 12 4692
627295.3161332568 1012767.698124788 149.4 55 17 16 4692
627296.1405914648 1012771.0182071277 149.1 55 17 20 4692
627287.1805092297 1012775.7443405953 136.4 55 17 24 4692
627288.9743077203 1012771.5148658807 131.5 55 17 28 4692
627291.8410056325 1012809.4865288774 150.6 55 17 32 4692
627283.6787847333 1012829.2100050473 171.1 55 17 36 4692
627282.3107335344 1012834.3144397262 171.4 55 17 40 4692
627286.0057440641 1012830.0357954974 173.0 55 17 44 4692
627299.7324906872 1012829.48285398 169.6 55 17 48 4692
627312.8256277435 1012838.0065721618 169.1 55 17 52 4692
627317.3657201423 1012837.4682876939 164.2 55 17 56 4692
627327.7624066644 1012837.0594458207 168.0 55 18 00 4692
627424.3645800068 1012918.9020376503 153.1 56 06 08 4692
627420.7811817634 1012919.2332885758 149.8 56 06 12 4692
627420.7988819821 1012920.5603174495 151.1 56 06 16 4692
627416.5441327334 1012917.8041954016 149.9 56 06 20 4692
627418.7717568933 1012928.9911128231 159.6 56 06 24 4692
627418.256026205 1012935.5800772462 155.9 56 06 28 4692
627499.1296797734 1012970.7291404584 101.7 56 06 32 4692
627535.1306801785 1012990.5729278972 115.9 56 06 36 4692
627524.1011799634 1012989.5863480022 124.8 56 06 40 4692
627528.1904799517 1012995.9358333081 116.3 56 06 44 4692
627529.072922375 1012994.8992185479 120.1 56 06 48 4692
627511.5041430187 1012963.559171687 123.3 56 06 52 4692
627507.1066557736 1012957.3635083496 135.6 56 06 56 4692
627511.880096979 1012945.8010725996 147.1 56 07 00 4692
627514.3300967773 1012945.9527306698 144.1 56 07 08 4692
627539.5183828118 1012952.1159436902 123.9 56 07 12 4692
627535.2724576365 1012956.8461714035 119.1 56 07 16 4692
627543.0391667208 1012954.161993914 117.3 56 07 20 4692
627525.6540314362 1012978.3010347874 118.6 56 07 24 4692
627534.7833981089 1013009.6580933281 115.6 56 07 28 4692
627537.2520175138 1013010.8492751147 119.5 56 07 32 4692
627615.8919561489 1013016.2229828079 108.1 56 07 36 4692
627680.7724229026 1013073.1163629462 89.4 56 07 40 4692
627693.658766566 1013080.976074515 91.8 56 07 44 4692
627693.3230500564 1013079.4489708787 92.0 56 07 48 4692
627695.4588676101 1013071.4055673899 93.2 56 07 52 4692
627685.6148436376 1013077.6326558494 80.6 56 07 56 4692
627695.658247401 1013084.521129087 79.4 56 08 00 4692
627727.8655666742 1013091.5033383513 61.2 56 08 08 4692
627701.0324555533 1013084.295213372 47.1 56 08 12 4692
627713.0821584652 1013092.616669874 76.0 56 08 16 4692
627708.6277134699 1013107.4643768024 81.2 56 08 20 4692
627695.6968143969 1013188.2242053585 73.1 56 08 24 4692
627685.7702166743 1013196.2092630488 77.7 56 08 28 4692
627683.2692902316 1013194.8189194795 75.5 56 08 32 4692
627705.0079208453 1013200.6836066837 96.4 56 08 36 4692
627699.980396266 1013253.4587799354 68.5 56 08 40 4692
627705.1759626121 1013284.7036734179 88.0 56 08 44 4692
627684.3222734986 1013368.865914589 108.6 56 08 48 4692
627663.4896745378 1013412.5113117337 102.1 56 08 52 4692
627618.0752633163 1013425.6453954005 84.1 56 08 56 4692
627609.6264561709 1013428.6037973753 91.9 56 09 00 4692
627633.4160212692 1013462.8612508952 94.7 56 09 08 4692
627630.8867304655 1013545.09223962 73.4 56 09 12 4692
627628.9546044403 1013547.9168739057 75.6 56 09 16 4692
627627.9599335939 1013539.4763231338 81.4 56 09 20 4692
627633.4552800696 1013545.9520119264 78.4 56 09 24 4692
627630.7927498191 1013546.9718146384 70.6 56 09 28 4692
627628.4816145385 1013544.6642617313 72.7 56 09 32 4692
627637.6779875585 1013538.1918028457 61.4 56 09 36 4692
627640.1702613455 1013538.8522831465 73.3 56 09 40 4692
627645.903861915 1013536.2058028452 73.1 56 09 44 4692
627643.3560026016 1013535.7441885856 48.8 56 09 48 4692
627637.5684034652 1013534.6970861331 51.1 56 09 52 4692
627644.1226943627 1013536.5207333321 61.6 56 09 56 4692
627636.856588743 1013540.7435725277 82.8 56 10 00 4692
627640.5334465802 1013531.8757891908 74.2 56 10 08 4692
627644.6626603657 1013529.246241508 64.0 56 10 12 4692
627644.0052152611 1013535.4698333284 59.5 56 10 16 4692
627639.7677608393 1013537.5903582498 61.1 56 10 20 4692
627635.3841994046 1013533.9159620823 72.2 56 10 24 4692
627635.197859889 1013533.7716046674 73.6 56 10 25 4692
627637.4344698415 1013535.3380238032 53.2 56 10 28 4692
627638.0457424431 1013546.8072584826 75.2 56 10 32 4692
627642.2163912742 1013524.5496995255 94.0 56 10 36 4692
627640.2588778073 1013531.8306696943 65.3 56 10 40 4692
627634.334300218 1013542.5710701357 56.3 56 10 44 4692
627640.610300107 1013538.6988912639 77.5 56 10 48 4692
627646.056148659 1013540.0876914989 68.1 56 10 52 4692
627638.884089943 1013535.6081017021 82.7 56 10 56 4692
627641.0842275008 1013531.4573604461 66.5 56 11 00 4692
627644.260399779 1013538.1135460758 55.0 56 11 08 4692
627642.2000288955 1013529.6142609809 51.6 56 11 12 4692
627641.5604169125 1013537.1206511557 57.2 56 11 16 4692
627644.7847532729 1013535.6713978722 62.1 56 11 20 4692
627637.1083083394 1013544.4599106337 67.6 56 11 24 4692
627616.9368310109 1013556.9678181027 69.5 56 11 28 4692
627619.6733502835 1013556.8550185458 66.4 56 11 32 4692
627618.518490454 1013557.1830313117 67.8 56 11 36 4692
627618.5849476252 1013577.4306440136 65.8 56 11 40 4692
627611.249158039 1013586.2202606371 73.9 56 11 44 4692
627604.5958698182 1013594.6361070331 79.3 56 11 48 4692
627602.8823395752 1013587.6197313323 59.7 56 11 52 4692
627596.1942903597 1013589.7876352607 49.5 56 11 56 4692
627606.3385810568 1013592.618102136 74.9 56 12 00 4692
627604.0334712947 1013591.8476470399 88.1 56 12 08 4692
627614.435366811 1013589.7691477018 92.1 56 12 12 4692
627601.9528338357 1013582.817509879 93.1 56 12 16 4692
627601.9021173631 1013588.3132261176 66.0 56 12 20 4692
627601.9641549458 1013589.5187603513 75.0 56 12 24 4692
627600.9487295123 1013587.5029048086 80.0 56 12 28 4692
627601.0730669514 1013586.430669861 74.9 56 12 32 4692
627605.2510712153 1013585.7032713678 82.3 56 12 36 4692
627602.7611808884 1013587.7078048652 71.8 56 12 40 4692
627597.93503695 1013588.3778196546 80.0 56 12 44 4692
627595.6726306056 1013587.994536824 91.3 56 12 48 4692
627605.5357833853 1013582.6079205088 71.2 56 12 52 4692
627605.7803510043 1013581.735119865 74.7 56 12 56 4692
627601.455996242 1013583.5457403114 64.3 56 13 00 4692
627604.5296319297 1013581.122884059 73.4 56 13 08 4692
627604.8265701557 1013581.0464364026 71.4 56 13 12 4692
627607.7933093546 1013581.1002514829 63.9 56 13 16 4692
627609.4270754473 1013585.5951209418 77.1 56 13 20 4692
627604.4301752071 1013588.100229491 62.3 56 13 24 4692
627605.2737749789 1013582.0762849947 57.0 56 13 28 4692
627604.8666665031 1013582.2408416679 74.1 56 13 32 4692
627605.5379244344 1013592.1510753977 84.8 56 13 36 4692
627604.2901345358 1013590.632084088 61.8 56 13 40 4692
627594.3930281061 1013572.5090521789 49.1 56 13 44 4692
627597.3950194197 1013582.061895486 73.6 56 13 48 4692
627601.502867341 1013575.8383899347 49.7 56 13 52 4692
627600.6991030292 1013576.3334087642 61.5 56 13 56 4692
627604.8212840075 1013582.683019436 58.7 56 14 00 4692
627604.4007350209 1013580.2046446932 71.7 56 14 08 4692
627597.0301025445 1013575.9676990729 33.6 56 14 12 4692
627601.2491806395 1013572.7302420214 52.2 56 14 16 4692
627608.4429266183 1013577.2983603145 73.2 56 14 20 4692
627591.5997822768 1013573.1745755483 33.2 56 14 24 4692
627603.2658293712 1013577.7571369564 60.5 56 14 28 4692
627625.0623980667 1013575.8260267116 71.1 56 14 32 4692
627599.5750067125 1013584.1478609036 60.1 56 14 36 4692
627584.6339384186 1013579.6984790622 51.0 56 14 40 4692
627596.7706777218 1013581.4406249116 61.5 56 14 44 4692
627601.3566001516 1013583.7002327931 66.0 56 14 48 4692
627601.1940949408 1013582.9809308499 64.7 56 14 52 4692
627605.8020778853 1013581.8125968053 75.2 56 14 56 4692
627610.4508587724 1013585.0234062268 74.9 56 15 00 4692
627569.4316064741 1013588.0977806587 84.8 56 15 08 4692
627536.0761289528 1013644.165267409 93.5 56 15 12 4692
627515.0749538406 1013665.2295123129 96.4 56 15 16 4692
627512.6776566674 1013665.7857373417 99.9 56 15 20 4692
627512.200519532 1013663.8158543138 96.7 56 15 24 4692
627511.7050409364 1013664.1238819221 96.5 56 15 28 4692
627491.2884466287 1013657.2793659637 78.5 56 15 32 4692
627489.83701071 1013657.57325052 70.5 56 15 37 4692
627515.5527312588 1013646.576029662 105.1 56 15 40 4692
627499.0342334438 1013644.0125224484 77.6 56 15 45 4692
627490.354216215 1013657.342699506 64.6 56 15 48 4692
627489.8962387401 1013652.8405726716 71.4 56 15 52 4692
627495.7683343496 1013658.3443444456 69.5 56 15 56 4692
627486.1508107777 1013669.349294101 65.3 56 16 00 4692
627499.141692868 1013672.0009342438 83.7 56 16 08 4692
627505.7867164436 1013679.7519983021 83.4 56 16 12 4692
627534.5719238645 1013694.8397147023 103.6 56 16 16 4692
627516.7368691957 1013749.5087057675 86.6 56 16 20 4692
627493.3035354858 1013771.7372622755 78.1 56 16 24 4692
627461.8607851171 1013762.9551721658 85.7 56 16 28 4692
627422.4895030173 1013755.9721182188 83.9 56 16 32 4692
627395.3911894307 1013694.8439861283 58.2 56 16 36 4692
627403.7134520259 1013697.0271567164 65.9 56 16 40 4692
627417.3245621709 1013694.7599151453 61.4 56 16 44 4692
627434.2650581893 1013695.9424887776 85.9 56 16 48 4692
627426.1664526735 1013692.554699817 61.6 56 16 52 4692
627421.3269258743 1013659.9066272766 70.2 56 16 56 4692
627407.2247090094 1013657.7158698604 67.3 56 17 00 4692
627402.8470557409 1013645.3940836149 69.9 56 17 08 4692
627401.7117883005 1013619.2048371186 86.5 56 17 12 4692
627406.1883076708 1013604.2797783628 95.9 56 17 16 4692
627406.5675091755 1013599.1389839428 94.4 56 17 20 4692
627399.0485888004 1013593.1765353845 98.4 56 17 24 4692
627394.3857454464 1013594.322599473 92.0 56 17 28 4692
627398.1828302041 1013599.266757416 92.1 56 17 32 4692
627382.0644782146 1013605.5068414112 80.6 56 17 36 4692
627342.9391468647 1013655.1200365031 76.6 56 17 40 4692
627333.989157504 1013670.4066542719 75.4 56 17 44 4692
627338.2535904339 1013670.1328899807 76.0 56 17 48 4692
627354.259969177 1013640.6704206191 71.0 56 17 52 4692
627396.2603168115 1013599.116802388 93.6 56 17 56 4692
627409.2103024726 1013600.828338612 96.9 56 18 00 4692
627438.9140295818 1013556.0282496512 102.6 57 06 08 4692
627445.6903782748 1013567.3625481537 105.7 57 06 12 4692
627446.618616273 1013565.7510595325 102.1 57 06 16 4692
627445.711675961 1013564.166825077 107.4 57 06 20 4692
627459.3308279284 1013596.8874577365 97.1 57 06 24 4692
627510.1237582709 1013575.2779568848 101.5 57 06 28 4692
627509.8951779277 1013574.6026746965 107.9 57 06 32 4692
627524.5364594411 1013580.0131144762 97.6 57 06 36 4692
627524.4482250697 1013583.518249248 94.1 57 06 40 4692
627636.1545563181 1013536.9594309778 78.6 57 06 44 4692
627641.1713548914 1013538.5016579212 77.6 57 06 48 4692
627641.6241064458 1013527.6108824305 61.2 57 06 52 4692
627643.4223263875 1013535.6227636558 74.3 57 06 56 4692
627633.149932698 1013535.0256131719 72.0 57 07 00 4692
627643.4914877849 1013531.2218593452 66.7 57 07 08 4692
627645.1217209892 1013519.8040987548 58.9 57 07 12 4692
627644.1124099523 1013522.6980626701 82.6 57 07 16 4692
627646.1417245318 1013527.2052697857 72.8 57 07 20 4692
627628.2533573875 1013543.8894566919 72.3 57 07 24 4692
627624.8927231783 1013539.9087391896 69.6 57 07 28 4692
627607.9790618881 1013516.7868909151 72.6 57 07 32 4692
627627.8353017959 1013533.8362847222 60.1 57 07 36 4692
627629.5135565666 1013521.158054725 68.0 57 07 40 4692
627672.6502343043 1013512.3514160959 67.1 57 07 44 4692
627688.4895775705 1013500.6699476166 69.8 57 07 48 4692
627637.5731340216 1013461.8020433484 100.7 57 07 52 4692
627618.621473604 1013436.849023456 104.7 57 07 56 4692
627615.767719949 1013381.3944515192 107.9 57 08 00 4692
627706.7825356072 1013338.4181101626 129.3 57 08 08 4692
627702.4979764939 1013338.1056946407 112.8 57 08 12 4692
627698.468833503 1013336.9647466749 121.1 57 08 16 4692
627685.4270400223 1013319.4286729204 112.4 57 08 20 4692
627697.2156935682 1013320.097078243 107.3 57 08 24 4692
627687.6647858693 1013317.2463976989 109.3 57 08 28 4692
627690.4900168051 1013316.8906091247 110.1 57 08 32 4692
627689.8426773126 1013319.984788294 107.4 57 08 36 4692
627689.3136725528 1013317.0637377874 105.4 57 08 40 4692
627688.7089819094 1013317.1613068667 109.7 57 08 44 4692
627690.0229602096 1013318.6031070399 112.4 57 08 48 4692
627696.4465689794 1013326.8732146764 116.9 57 08 52 4692
627704.0704437809 1013330.9672366652 119.4 57 08 56 4692
627692.8620954514 1013334.3479725348 105.0 57 09 00 4692
627693.5549072203 1013327.3836016252 99.7 57 09 08 4692
627693.4506505493 1013329.0419813168 112.4 57 09 12 4692
627703.8188693711 1013327.2066659301 118.0 57 09 16 4692
627697.7302968774 1013327.4745010206 114.9 57 09 20 4692
627701.2096751223 1013325.3183551169 119.9 57 09 24 4692
627699.6307758307 1013327.6465141583 121.5 57 09 28 4692
627697.3675683228 1013327.5065031912 117.5 57 09 32 4692
627694.2577267718 1013330.9244681278 115.9 57 09 36 4692
627691.0099830583 1013329.4100703424 118.7 57 09 40 4692
627695.09703547 1013329.633381366 124.4 57 09 44 4692
627696.973071616 1013330.5683250414 121.3 57 09 48 4692
627697.7684620487 1013329.2660382917 119.6 57 09 52 4692
627698.7791919743 1013329.3356531669 113.3 57 09 56 4692
627697.4189732828 1013328.6014222682 120.9 57 10 00 4692
627697.9318605589 1013329.7088907483 121.7 57 10 08 4692
627698.8433364021 1013329.8887659919 114.3 57 10 12 4692
627698.3660766839 1013324.557214322 119.0 57 10 16 4692
627695.322255798 1013331.3481163091 115.8 57 10 20 4692
627697.2809471278 1013333.908869389 110.9 57 10 24 4692
627696.580772236 1013329.54971114 127.5 57 10 28 4692
627692.6013806723 1013296.0086610285 103.6 57 10 32 4692
627681.1242602097 1013246.5307678417 93.0 57 10 36 4692
627692.3698850363 1013211.2143245705 71.6 57 10 41 4692
627733.460248728 1013216.8651066498 81.6 57 10 44 4692
627730.2184812285 1013216.8988616343 76.0 57 10 48 4692
627718.2345929733 1013212.0277373302 63.3 57 10 52 4692
627688.7870898183 1013201.1619850731 82.3 57 10 56 4692
627689.0047174024 1013201.8261747849 73.8 57 11 00 4692
627683.427181872 1013190.1639655009 71.8 57 11 13 4692
627690.5782001675 1013190.9721948016 57.0 57 11 16 4692
627691.459857626 1013190.1788594517 66.0 57 11 17 4692
627697.4215864178 1013181.5617378777 66.8 57 11 20 4692
627700.6581236889 1013186.5483448918 67.2 57 11 24 4692
627700.0920581684 1013181.4929595882 72.4 57 11 28 4692
