627587.6699236217 1013725.0228891446 108.6 0 12 56 4665
627427.17966108 1013899.6209597082 68.0 0 15 37 4665
627427.4443449856 1013899.3232449027 49.7 0 15 40 4665
627460.1548755728 1013954.4649915022 58.1 0 15 44 4665
627495.3499080348 1014029.6520903668 82.1 0 15 48 4665
627488.0231703621 1014056.0904860698 49.8 0 15 52 4665
627483.2503289265 1014050.4796746926 53.2 0 15 56 4665
627481.111769671 1014055.9907659807 60.6 0 16 01 4665
627471.4462744726 1014068.2672359534 87.2 0 17 00 4665
627494.1169512299 1014122.2376449471 91.8 0 22 09 4665
627465.5775458906 1014129.8198294627 38.3 1 02 00 4665
627619.9815079963 1014053.2324841094 60.6 1 03 52 4665
627628.024800287 1014049.9078720319 95.4 1 03 56 4665
627664.1770879934 1014056.6043138122 108.4 1 04 00 4665
627733.8920496937 1014109.6212131947 82.9 1 04 08 4665
627767.3102634359 1014081.7080643497 102.9 1 04 12 4665
627786.99038919 1014102.1297443925 129.2 1 04 16 4665
627772.7846054538 1014094.6416596713 103.3 1 04 20 4665
627793.5390927929 1014078.4865649265 49.1 1 05 01 4665
627785.8293440498 1014090.7914157569 43.4 1 06 00 4665
627792.8923399034 1014132.3264508839 78.1 1 06 24 4665
627810.9141686311 1014084.5473597018 12.7 1 06 28 4665
627802.6798417788 1014143.493655595 71.4 1 06 32 4665
627845.4195756067 1014114.5602206783 74.8 1 06 36 4665
627882.2213491884 1014046.2296223073 67.2 1 06 40 4665
627911.7324310793 1014060.99933408 29.6 1 06 44 4665
627946.4705681886 1014076.8254710522 124.4 1 06 48 4665
627930.2313368566 1014049.1717797677 43.1 1 06 52 4665
627951.3895914136 1013989.8250339659 93.5 1 07 12 4665
627887.0004764383 1013944.6983721651 75.8 1 07 16 4665
627865.5467578943 1013905.2730547186 78.9 1 07 20 4665
627839.6550416903 1013912.9409766683 87.6 1 07 24 4665
627842.7128514936 1013908.61609221 68.6 1 07 28 4665
627848.8095377082 1013902.4211649857 42.9 1 07 32 4665
627850.1457916725 1013893.5789952098 40.8 1 07 36 4665
627845.6026515686 1013901.8799940406 79.4 1 07 41 4665
627842.2745345734 1013904.8438547103 110.4 1 07 44 4665
627853.9417478489 1013909.0284186151 65.3 1 07 49 4665
627846.1667063285 1013910.9384196774 100.4 1 07 52 4665
627836.7417278234 1013916.7576555369 141.4 1 07 56 4665
627841.3997939003 1013913.6875184692 87.5 1 08 00 4665
627851.4836138609 1013901.2244865878 63.7 1 08 08 4665
627809.3947316415 1013925.9137309453 126.8 1 08 12 4665
627842.0903467726 1013897.2463306385 93.0 1 08 16 4665
627839.3211322722 1013907.4661268528 102.0 1 08 21 4665
627845.8800455611 1013901.0515330542 118.8 1 08 25 4665
627822.4444563036 1013879.7993793408 81.7 1 09 00 4665
627835.524735033 1013827.6473954116 87.3 1 09 08 4665
627815.5027994462 1013766.7961245134 60.6 1 09 12 4665
627846.6854192045 1013706.5528893791 78.8 1 11 00 4665
627843.6525752211 1013699.7644472641 66.5 1 13 00 4665
627848.4340928622 1013770.5961129746 102.3 1 17 12 4665
627850.4271466663 1013772.7146647518 102.8 1 17 13 4665
627814.611416028 1013862.2800861083 130.2 1 17 20 4665
627839.8434575396 1013895.4697584342 89.3 1 17 28 4665
627852.2727361294 1013901.8573540092 97.4 1 17 32 4665
627839.9858381662 1013912.5881876484 74.9 1 17 36 4665
627847.2348678005 1013913.6290005189 95.9 1 17 40 4665
627854.9289111526 1013909.5845204099 85.7 1 17 44 4665
627851.5918508777 1013901.7335104765 98.0 1 17 48 4665
627851.0362393114 1013903.6447664817 78.6 1 17 52 4665
627865.6143405054 1013897.9749143369 97.1 1 17 56 4665
627873.5381815297 1013890.8349075839 135.4 1 18 00 4665
627846.2507495782 1013905.3432833599 91.4 1 18 08 4665
627854.421401774 1013917.0028756948 95.2 1 18 12 4665
627874.6686303832 1013884.4690905077 69.6 1 18 16 4665
627851.4853615279 1013914.2620151509 87.4 1 18 20 4665
627847.0057970199 1013906.3188420712 66.6 1 18 24 4665
627861.8562223185 1013928.5384487356 109.5 1 18 28 4665
627864.685038191 1013916.8812907959 93.0 1 18 32 4665
627856.2475091898 1013919.7733175042 80.2 1 18 36 4665
627862.3544660164 1013917.1944307558 92.5 1 18 40 4665
627862.0270293672 1013923.2974528676 75.9 1 18 44 4665
627860.3595850994 1013929.2192066569 89.7 1 18 48 4665
627842.765707758 1013939.8112178328 50.2 1 18 52 4665
627853.7931655588 1013920.981764928 93.8 1 18 56 4665
627831.06568157 1013911.818420011 72.4 1 19 00 4665
627805.1725789023 1013913.1279408904 96.1 1 19 08 4665
627794.4407312186 1013905.1313680497 112.2 1 19 12 4665
627743.9740087241 1013931.2642973106 103.3 1 19 20 4665
627669.0641651701 1013952.0988252532 89.8 1 19 24 4665
627688.8705606635 1013967.4894066374 97.1 1 19 28 4665
627698.484470905 1013967.7969459785 91.2 1 19 32 4665
627665.7776391553 1013959.198567391 74.6 1 19 36 4665
627605.0127490929 1013945.1905954968 99.2 1 19 40 4665
627570.3323320353 1013901.2220899416 98.4 1 19 44 4665
627558.9096615261 1013855.3382752966 73.7 1 19 48 4665
627512.5220849393 1013829.7106053785 79.3 1 19 52 4665
627493.928289234 1013826.6980661055 106.8 1 19 56 4665
627502.8795059914 1013824.6590955177 84.6 1 20 00 4665
627474.5555142101 1013962.8935172767 70.5 1 20 56 4665
627522.0418586924 1014066.7608261434 64.4 1 21 01 4665
627703.5918815566 1014111.1929801353 75.3 1 21 08 4665
627779.0599965721 1014080.7508543876 64.2 1 21 12 4665
627800.8022192887 1014044.6058803133 75.4 1 21 16 4665
627831.8643069114 1014018.1448204403 44.1 1 21 20 4665
627849.346940526 1014007.9615991166 76.6 1 21 24 4665
627877.7707638998 1014015.7722017295 98.8 1 21 28 4665
627872.0935137325 1014041.7514597722 20.4 1 21 32 4665
627943.3055849482 1014083.7044269738 90.3 1 21 36 4665
627947.4014456193 1014121.8792846518 73.0 1 21 40 4665
627882.5369726692 1014043.7757415104 88.7 1 21 44 4665
627824.250064665 1013905.880266478 96.3 1 21 48 4665
627827.6522276845 1013866.4580273514 102.2 1 21 52 4665
627887.0146259938 1014004.7993065174 71.5 1 21 56 4665
627934.0659129604 1014093.3835222191 101.7 1 22 00 4665
628096.4255900913 1014189.9165803447 60.8 1 22 08 4665
628118.3547815233 1014248.6179434964 81.9 1 22 12 4665
628073.6258244484 1014216.6475202314 93.4 1 22 16 4665
627918.2322025829 1014042.3100457742 58.8 1 22 36 4665
627925.2454015993 1014044.9093077193 64.6 1 22 37 4665
627920.4723885078 1014002.0546782278 80.2 1 22 40 4665
627873.3546024975 1013923.7764535517 97.2 1 22 44 4665
627824.9163810072 1013900.320189458 108.4 1 22 48 4665
627825.7146309162 1013901.5281079995 97.4 1 22 53 4665
627788.0872831226 1013915.9698809725 90.9 1 22 56 4665
627800.891309598 1013877.8608073547 112.4 1 23 00 4665
627809.5156975043 1013902.1170523996 78.4 1 23 05 4665
627849.4277755963 1013925.2913574239 77.4 1 23 08 4665
627831.9390599523 1013916.974330344 41.8 1 23 12 4665
627844.5860972902 1013917.1921985382 79.0 1 23 16 4665
627836.5350249137 1013916.1156155476 46.8 1 23 20 4665
627852.7797299558 1013921.7525524271 91.7 1 23 24 4665
627846.2206804471 1013914.6320062638 76.4 1 23 28 4665
627852.9991053644 1013918.4800592143 90.3 1 23 32 4665
627849.7405005416 1013916.9434895668 86.0 1 23 36 4665
627856.2028060621 1013916.6105505346 92.1 1 23 40 4665
627840.5264143972 1013918.7161355225 76.3 1 23 44 4665
627870.7728121018 1013913.4398097376 100.3 1 23 48 4665
627888.012157012 1013920.7165839424 84.4 2 00 00 4665
627893.127774534 1013912.0856992956 63.2 2 05 00 4665
627904.2749064805 1013880.0643055156 66.3 2 05 28 4665
627909.1424952686 1013886.9471631008 65.3 2 05 32 4665
627874.3119374679 1013865.669131357 46.7 2 05 36 4665
627903.4034176671 1013816.6431590029 55.6 2 05 40 4665
627914.9019839149 1013828.8000975457 80.7 2 05 44 4665
627933.4282488761 1013791.5942309689 83.7 2 05 48 4665
627908.7291392689 1013770.2826465406 95.3 2 05 52 4665
627810.9064758252 1013716.8206782764 30.0 2 15 01 4665
-999