627660.4693928245 1013391.6127840993 102.1 25 07 00 4660
627661.5886877002 1013317.2616714423 121.6 25 07 12 4660
627664.6382468329 1013318.8970654681 114.5 25 07 16 4660
627672.8293898585 1013307.2682813631 115.1 25 07 20 4660
627656.4592164877 1013309.7698188613 104.8 25 07 24 4660
627670.0203005235 1013295.8251204785 127.1 25 07 28 4660
627672.4847743593 1013301.6938806861 124.0 25 07 32 4660
627681.3750994788 1013325.3427276035 118.9 25 07 36 4660
627699.513171595 1013323.2339479097 135.4 25 07 40 4660
627660.0877316613 1013339.6826683675 118.8 25 07 44 4660
627592.2675046943 1013328.9694827372 115.2 25 07 48 4660
627592.3603821093 1013310.4142792254 138.5 25 07 52 4660
627588.8287011875 1013315.1578622082 139.4 25 07 56 4660
627588.6482871078 1013313.1778785937 126.7 25 08 00 4660
627549.7295477809 1013329.263422914 138.5 25 08 08 4660
627544.268324674 1013329.2236794634 115.4 25 08 12 4660
627533.9631307609 1013325.1542110753 99.9 25 08 16 4660
627482.6965144787 1013333.4040046073 127.1 25 08 20 4660
627476.4630215416 1013317.2832975828 142.1 25 08 24 4660
627449.263461136 1013307.8957006928 63.0 25 08 28 4660
627437.4003602265 1013313.2759116313 128.1 25 08 32 4660
627406.7924394015 1013311.2862813306 114.1 25 08 36 4660
627402.0477353814 1013303.7293599735 124.0 25 08 40 4660
627395.9205073636 1013295.537670784 124.4 25 08 44 4660
627394.538020576 1013281.2572073204 120.3 25 08 48 4660
627409.0689786788 1013259.5748867461 129.0 25 08 52 4660
627408.0271844983 1013235.0557205243 133.2 25 08 56 4660
627407.9638828614 1013230.8313223136 120.4 25 09 00 4660
627354.1290037148 1013190.3620938689 111.9 25 09 08 4660
627349.7565577235 1013190.038377696 133.2 25 09 12 4660
627338.2244021542 1013167.7302122588 132.8 25 09 16 4660
627306.6487555517 1013155.6968057685 137.2 25 09 20 4660
627314.3270170756 1013149.750166858 130.0 25 09 24 4660
627303.8809099545 1013107.5298843952 178.5 25 09 28 4660
627292.2410482895 1013070.87904381 143.9 25 09 32 4660
627274.8334516112 1013064.5198740604 153.6 25 09 36 4660
627275.9501924404 1013065.7951507745 141.2 25 09 40 4660
627256.0745835046 1013085.3592722883 152.2 25 09 44 4660
627243.1899169484 1013076.9578730508 141.1 25 09 48 4660
627211.4280891588 1013061.2858445235 117.2 25 09 52 4660
627199.1445759985 1013053.881624884 130.5 25 09 56 4660
627198.7418768716 1013069.7486901323 150.5 25 10 00 4660
627155.0934996613 1013066.7331477631 136.7 25 10 08 4660
627172.7199234997 1013018.7424523837 80.1 25 10 12 4660
627166.8643537862 1013049.0448970911 113.9 25 10 16 4660
627161.5525030324 1013040.1371039003 113.2 25 10 20 4660
627173.1312551488 1013027.5128413091 125.6 25 10 24 4660
627177.1614855137 1013018.0821986799 121.1 25 10 28 4660
627193.8374281081 1013005.9498382943 124.7 25 10 32 4660
627180.2321548866 1012982.4297367354 95.5 25 10 36 4660
627217.8936611334 1012981.4451142602 140.2 25 10 40 4660
627226.5553878074 1012994.2893194783 155.0 25 10 44 4660
627285.2273797161 1012959.1586477747 162.1 25 10 48 4660
627265.824039198 1012951.4771497076 163.8 25 10 52 4660
627310.8828582957 1012963.5649790036 172.0 25 10 56 4660
627314.0033124236 1012946.6119111337 182.7 25 11 00 4660
627361.1980755434 1012977.8814176176 100.5 25 11 16 4660
627373.9666497477 1012974.5719549519 130.5 25 11 20 4660
627372.4057322899 1012974.7327968753 135.0 25 11 24 4660
627390.0604321903 1012982.8510400915 133.3 25 11 28 4660
627371.5926607101 1012978.1139547561 120.8 25 11 32 4660
627385.1062881541 1012975.4814401964 141.2 25 11 36 4660
627376.6452765573 1012985.6165671605 171.5 25 11 40 4660
627387.741493699 1012959.0797153028 128.2 25 11 44 4660
627392.7756399505 1012979.1332112822 160.6 25 11 48 4660
627403.4360789739 1012975.2972334686 129.2 25 11 52 4660
627423.6730273803 1012959.5825538357 98.2 25 11 56 4660
627434.0961739739 1012964.5922977631 138.3 25 12 00 4660
627442.9840677876 1012961.8011350351 153.7 25 12 08 4660
627445.906489022 1012955.1646388205 147.2 25 12 12 4660
627434.586337661 1012948.8913769957 161.1 25 12 16 4660
627444.2290373207 1012936.9354828608 155.9 25 12 20 4660
627466.4264057009 1012913.0441467463 142.2 25 12 24 4660
627461.6914716971 1012892.21753608 144.8 25 12 28 4660
627438.0268148273 1012873.5857550773 163.0 25 12 32 4660
627429.6803358833 1012851.5864095144 152.2 25 12 36 4660
627467.17727266 1012816.4872397062 197.5 25 12 40 4660
627452.8548795844 1012831.369500303 176.1 25 12 44 4660
627452.8691303965 1012837.1750483176 203.6 25 12 48 4660
627432.3588823222 1012849.0185061222 157.2 25 12 52 4660
627451.8699834781 1012850.5521273859 183.8 25 12 56 4660
627437.7473484896 1012847.7863097325 152.6 25 13 00 4660
627432.9821344219 1012849.9825696026 130.2 25 13 08 4660
627457.2694661191 1012845.9030163963 150.1 25 13 12 4660
627456.5944883155 1012847.3494513788 150.7 25 13 16 4660
627437.0030430789 1012846.877146462 129.4 25 13 20 4660
627456.2957983774 1012847.96774201 174.8 25 13 24 4660
627459.0694470702 1012853.3951527098 147.1 25 13 28 4660
627459.776526914 1012848.8083209969 151.2 25 13 32 4660
627467.8040301851 1012836.814047609 163.5 25 13 36 4660
627453.3073577004 1012851.2202471095 160.3 25 13 40 4660
627438.580158829 1012845.1018762161 142.7 25 13 44 4660
627402.4489682836 1012824.6827606647 145.5 25 13 48 4660
627357.2091419632 1012797.1018695716 147.2 25 13 52 4660
627337.3233140592 1012792.492941635 158.0 25 13 56 4660
627329.5756153229 1012796.0950446371 151.9 25 14 00 4660
627306.6672657066 1012754.1332166233 136.3 25 14 08 4660
627273.6950099552 1012711.5861093923 141.1 25 14 12 4660
627237.0899347779 1012691.5305643962 153.7 25 14 16 4660
627224.2900764958 1012663.556643293 182.2 25 14 20 4660
627204.7628121306 1012663.604402104 177.9 25 14 24 4660
627189.8065661525 1012653.5044894582 161.9 25 14 28 4660
627193.3282840826 1012651.8571038512 161.3 25 14 32 4660
627189.1923373649 1012653.1486549623 186.3 25 14 36 4660
627191.8187067787 1012653.1349865185 168.3 25 14 40 4660
627167.9134549734 1012620.3925099161 141.7 25 14 44 4660
627147.172232862 1012584.4533810202 166.4 25 14 48 4660
627116.1945698078 1012594.7594528393 169.5 25 14 52 4660
627116.2948189103 1012594.3395678231 160.9 25 14 56 4660
627116.8727876269 1012602.5575834663 127.8 25 15 00 4660
627127.3579270447 1012625.923851281 162.8 25 15 08 4660
627133.5212591357 1012612.6850199789 168.0 25 15 12 4660
627129.061452469 1012619.0069657443 151.5 25 15 16 4660
627107.756917596 1012597.6295498272 131.3 25 15 20 4660
627133.3497305621 1012601.0955938797 151.5 25 15 24 4660
627164.6950456093 1012623.4010181332 133.0 25 15 28 4660
627177.8388803013 1012657.1925731056 158.5 25 15 32 4660
627184.8813556442 1012650.7794161717 134.3 25 15 36 4660
627194.6194057467 1012646.7524197788 145.5 25 15 40 4660
627216.6308103447 1012666.9931832629 149.3 25 15 44 4660
627229.6081375912 1012643.2268679955 155.4 25 15 48 4660
627237.1545817141 1012654.3645300069 156.0 25 15 52 4660
627236.6754378822 1012663.2536930154 175.2 25 15 56 4660
627240.9962552714 1012652.3200866553 155.1 25 16 00 4660
627303.9738888518 1012669.1541566986 177.2 25 16 08 4660
627330.2141603403 1012666.0539130054 159.0 25 16 12 4660
627331.3819888915 1012665.1177355428 158.5 25 16 16 4660
627333.897994772 1012651.6017885352 150.3 25 16 20 4660
627364.1142566301 1012666.174146662 152.7 25 16 24 4660
627370.7194958306 1012652.2290479556 125.8 25 16 28 4660
627329.0983508659 1012633.7717444373 112.2 25 16 32 4660
627412.7381659988 1012663.2566402315 146.0 25 16 36 4660
627415.7431544585 1012682.1535524867 148.8 25 16 40 4660
627433.4209040658 1012703.6189965006 153.8 25 16 44 4660
627448.4563304181 1012706.1776440131 113.9 25 16 48 4660
627486.679982211 1012718.3873679324 144.0 25 16 52 4660
627505.2823692677 1012718.9007323438 132.4 25 16 56 4660
627543.5858552831 1012747.2334851488 144.1 25 17 00 4660
627613.9392500998 1012783.7200142253 143.0 25 17 08 4660
627608.0349736221 1012788.1463158156 143.9 25 17 12 4660
627701.6980518502 1012796.6096079476 144.4 25 17 16 4660
627715.9958818906 1012779.1618636203 169.5 25 17 20 4660
627697.1392638648 1012792.7245461015 141.3 25 17 24 4660
627717.4680938649 1012803.0631914872 162.8 25 17 28 4660
627717.1292256353 1012785.5018206546 124.1 25 17 32 4660
627751.5113760454 1012799.6566977965 139.1 25 17 36 4660
627747.1129127699 1012814.1728418595 138.2 25 17 40 4660
627753.6624721021 1012837.9025923489 100.5 25 17 44 4660
627750.7080961864 1012844.2072266057 125.8 25 17 48 4660
627745.866522088 1012873.4292247414 111.2 25 17 52 4660
627760.9575331355 1012909.7707094405 128.5 25 17 56 4660
627773.753880982 1012928.4892160014 112.9 25 18 00 4660
627781.6128346673 1013043.4526323001 102.2 26 06 08 4660
627776.2111077575 1013038.5917173858 84.7 26 06 12 4660
627790.4534221331 1013048.5015954715 105.9 26 06 16 4660
627821.5404984523 1013021.3217448213 96.2 26 06 20 4660
627855.7640697529 1012996.0982863101 104.9 26 06 24 4660
627878.3001484801 1012952.5026872975 95.9 26 06 28 4660
627877.954707427 1012953.9833572651 97.5 26 06 32 4660
627878.3948183208 1012950.4130097887 98.2 26 06 36 4660
627875.3134142184 1012948.4236394084 102.3 26 06 40 4660
627871.5868353981 1012948.8539095201 95.0 26 06 44 4660
627871.2139013453 1012948.642599016 95.8 26 06 48 4660
627872.095946143 1012940.9379461161 119.5 26 06 52 4660
627867.215618401 1012920.962263337 137.5 26 06 56 4660
627867.9272973356 1012948.9415952662 98.5 26 07 00 4660
627885.6622254072 1012959.415709209 91.9 26 07 08 4660
627885.5356152714 1012974.7750219629 88.3 26 07 12 4660
627905.95804977 1012983.3116133612 74.6 26 07 16 4660
627924.9810434728 1012976.0637547213 86.2 26 07 20 4660
627925.2964215487 1012977.0821220822 90.2 26 07 24 4660
627973.8975672887 1012974.3311466614 63.2 26 07 28 4660
628001.336333049 1013001.5234366632 80.1 26 07 32 4660
628018.4998583527 1012998.4053377032 80.3 26 07 36 4660
628031.5242418275 1013000.9577135628 74.1 26 07 40 4660
628061.0740048476 1013020.991227288 64.0 26 07 44 4660
628061.9288343367 1013018.3068730354 52.0 26 07 48 4660
628075.6895944753 1012997.0756288245 61.6 26 07 52 4660
628078.558393686 1013003.6313324068 50.7 26 07 56 4660
628079.2845965745 1012996.5564869269 70.7 26 08 00 4660
627949.1465876811 1013033.3787832566 80.9 26 08 08 4660
627905.6193391995 1013050.6323303072 88.7 26 08 12 4660
627876.7799432965 1013079.3454114281 52.4 26 08 16 4660
627853.5348058075 1013117.9515010266 72.5 26 08 20 4660
627844.9692098664 1013129.8112676326 82.5 26 08 24 4660
627841.5258042807 1013127.6327392478 57.3 26 08 28 4660
627858.0114543346 1013116.6390084099 62.8 26 08 32 4660
627833.046244329 1013146.8685484533 51.8 26 08 36 4660
627831.8714047471 1013149.9720788082 51.0 26 08 40 4660
627822.7650550597 1013148.9584547135 103.8 26 08 44 4660
627814.6998410547 1013152.2055735461 88.8 26 08 48 4660
627797.5450128326 1013213.8322572378 81.7 26 08 52 4660
627812.8607615524 1013221.3902459035 129.6 26 08 56 4660
627807.9786784675 1013157.7903021551 67.8 26 09 00 4660
627777.2750676443 1013124.1738870278 70.8 26 09 08 4660
627689.9020335051 1013185.9828027245 79.9 26 09 12 4660
627681.1248983274 1013198.7155042245 54.1 26 09 16 4660
627666.6162064911 1013271.276178283 135.5 26 09 20 4660
627681.8401955831 1013300.430308366 124.9 26 09 24 4660
627670.7151272525 1013332.4518245584 116.9 26 09 28 4660
627659.5713070979 1013322.6625696645 127.8 26 09 32 4660
627643.6553143474 1013324.0376517161 122.6 26 09 36 4660
627648.7763374945 1013320.5377150123 116.9 26 09 40 4660
627646.8179901133 1013311.0656479293 104.4 26 09 44 4660
627643.3519675841 1013329.4993776025 125.7 26 09 48 4660
627645.0263926021 1013321.4102506131 82.2 26 09 52 4660
627660.3212203832 1013318.4297364113 120.1 26 09 56 4660
627656.9226855584 1013312.5690176836 131.7 26 10 00 4660
627647.5875763716 1013321.1531291257 89.5 26 10 08 4660
627663.1941122592 1013327.1306915525 153.0 26 10 12 4660
627657.0410448896 1013316.749365314 118.7 26 10 16 4660
627672.7045199075 1013315.3071237146 177.9 26 10 20 4660
627665.7712650268 1013321.9306478873 128.7 26 10 24 4660
627637.5161687935 1013329.756980256 91.2 26 10 28 4660
627647.5113446593 1013327.7435157932 89.5 26 10 32 4660
627669.7785553505 1013319.6324494792 118.6 26 10 36 4660
627657.6082330588 1013318.0560544826 92.7 26 10 40 4660
627662.5514056715 1013315.1858570128 114.8 26 10 44 4660
627710.0510620084 1013323.3011773494 149.0 26 10 48 4660
627661.8393448072 1013311.1031142892 110.3 26 10 52 4660
627705.6036222936 1013298.5829845004 176.9 26 10 56 4660
627688.2777303759 1013314.5944317894 128.2 26 11 04 4660
627673.8654250456 1013313.1103105849 141.4 26 11 09 4660
627675.2505156103 1013312.948914004 120.1 26 11 13 4660
627667.8548783688 1013313.0356012201 113.4 26 11 16 4660
627673.4517755616 1013315.2984798783 116.6 26 11 20 4660
627676.0138331467 1013311.370070504 121.8 26 11 24 4660
627702.3254482904 1013309.8848381289 79.2 26 11 28 4660
627728.6598125965 1013335.3593731298 104.2 26 11 32 4660
627707.9905909591 1013352.2335952405 133.5 26 11 36 4660
627712.6994503608 1013347.0625596367 112.9 26 11 40 4660
627728.8737821531 1013326.9558997289 36.9 26 11 44 4660
627721.4008578876 1013347.5551238795 116.0 26 11 48 4660
627733.511459391 1013347.2072354652 108.9 26 11 52 4660
627724.0521538256 1013336.4171167853 94.3 26 11 56 4660
627725.8355042976 1013318.4313331927 86.5 26 12 00 4660
627720.6458024405 1013332.978092289 51.1 26 12 08 4660
627733.4182577374 1013331.8472165146 70.8 26 12 12 4660
627758.8914541916 1013351.767819882 82.9 26 12 16 4660
627764.3602818178 1013356.2529795232 75.8 26 12 20 4660
627754.5496199862 1013358.9747300902 83.7 26 12 24 4660
627750.1662243449 1013355.2450326737 94.9 26 12 28 4660
627744.5947945552 1013355.3044277922 87.4 26 12 32 4660
627746.2492981367 1013390.773144011 81.9 26 12 36 4660
627734.2700610613 1013432.0696421332 93.0 26 12 40 4660
627740.206087427 1013455.1892303146 81.6 26 12 44 4660
627750.4942366556 1013471.3120482791 70.4 26 12 48 4660
627761.5901531503 1013475.5057772731 95.9 26 12 52 4660
627747.4785163533 1013469.4113602325 74.0 26 12 56 4660
627756.032195695 1013474.8022023356 94.1 26 13 00 4660
627759.0458319939 1013463.7538332246 63.4 26 13 08 4660
627774.8196638754 1013468.94686436 49.8 26 13 12 4660
627775.6434885602 1013472.4438926856 60.9 26 13 16 4660
627775.5967255209 1013466.516592179 41.8 26 13 20 4660
627777.3026950766 1013465.6706344094 60.0 26 13 24 4660
627783.5352084107 1013478.6509010524 82.0 26 13 28 4660
627771.7843376882 1013469.7111164486 56.3 26 13 32 4660
627785.1642845803 1013460.8083727357 65.6 26 13 36 4660
627785.533333686 1013469.0146873747 74.9 26 13 40 4660
627793.6244660782 1013464.5291456226 74.5 26 13 44 4660
627785.1880679469 1013467.0452263096 70.8 26 13 48 4660
627804.9679302872 1013470.3271145176 83.4 26 13 52 4660
627788.8504269469 1013469.4677402407 78.4 26 13 56 4660
627771.6575281641 1013471.5463533208 66.5 26 14 00 4660
627772.170441302 1013482.8383466529 77.5 26 14 08 4660
627747.9905641959 1013457.1827425003 71.6 26 14 12 4660
627727.0282545008 1013425.3671317648 74.0 26 14 16 4660
627726.4248228971 1013418.2769311521 81.1 26 14 20 4660
627731.2362347035 1013432.3694617051 90.5 26 14 24 4660
627698.7093214936 1013418.9614172704 86.8 26 14 28 4660
627675.527649119 1013390.4229285613 101.3 26 14 32 4660
627682.7618257197 1013348.4807749131 104.8 26 14 36 4660
627650.3911817458 1013330.8933214531 121.2 26 14 40 4660
627651.1505822273 1013327.1249593812 122.6 26 14 44 4660
627647.0197411727 1013330.2521185211 121.7 26 14 48 4660
627644.6996982736 1013330.6980067499 122.8 26 14 52 4660
627652.1630046604 1013323.2689497892 123.8 26 14 56 4660
627658.8633110038 1013310.5184784773 121.0 26 15 00 4660
627667.4711100487 1013302.5733897546 120.1 26 15 08 4660
627670.409141518 1013304.717096832 85.5 26 15 12 4660
627677.7204101079 1013279.7272739989 147.4 26 15 16 4660
627678.0406797356 1013296.2380666822 109.9 26 15 20 4660
627687.9385946078 1013290.3207839864 85.0 26 15 24 4660
627697.1617248111 1013275.5880089023 75.7 26 15 28 4660
627699.628577642 1013233.1107200936 82.4 26 15 36 4660
627697.7358742729 1013254.336176025 49.9 26 15 40 4660
627700.5739019354 1013250.0216254178 49.1 26 15 44 4660
627686.8197390859 1013194.4765306409 75.8 26 15 48 4660
627696.3918489745 1013194.1757141664 81.7 26 15 52 4660
627694.8622593015 1013194.845316717 86.5 26 15 56 4660
627696.6741092148 1013205.4448402295 69.7 26 16 00 4660
627707.007229643 1013194.0773171018 78.1 26 16 08 4660
627708.8809838359 1013188.9192343026 29.8 26 16 12 4660
627724.3487726848 1013197.041640141 69.4 26 16 16 4660
627729.0769283021 1013196.105923166 63.0 26 16 20 4660
627711.3336255497 1013164.4445033603 88.6 26 16 24 4660
627735.3296180519 1013141.6649340302 91.7 26 16 28 4660
627744.5363013813 1013166.0335931268 90.4 26 16 32 4660
627755.9970489456 1013179.7716386641 83.8 26 16 36 4660
627788.4125065439 1013180.1307719091 106.5 26 16 40 4660
627768.4311146297 1013201.7511290781 86.5 26 16 44 4660
627802.2613478347 1013209.7560064889 129.0 26 16 48 4660
627780.4377801341 1013230.1650653592 81.3 26 16 52 4660
627765.0322762295 1013253.7685608332 89.3 26 16 56 4660
627769.0812947275 1013255.5620076119 94.8 26 17 00 4660
627722.3997961837 1013269.6760732773 52.2 26 17 08 4660
627696.770789095 1013301.3521430735 37.4 26 17 12 4660
627692.2994281508 1013328.2420772985 52.9 26 17 16 4660
627674.1142140514 1013341.5415149024 19.8 26 17 20 4660
627738.4401154326 1013355.6273329522 108.1 26 17 24 4660
627679.6643266454 1013337.8770968309 55.1 26 17 28 4660
627725.4259088583 1013394.1559595007 71.5 26 17 32 4660
627723.7061531438 1013426.4622041823 49.1 26 17 36 4660
627762.7266433145 1013460.4704174189 35.8 26 17 40 4660
627764.459006372 1013431.0724946467 32.9 26 17 44 4660
627766.3187445395 1013430.2491496975 46.8 26 17 48 4660
627814.2364183246 1013434.7831383944 39.3 26 17 52 4660
627740.1360939516 1013459.8444695916 25.2 26 17 56 4660
627625.6092699982 1013454.1554178201 7.1 26 18 00 4660
627703.6359580506 1013417.8051798561 135.4 27 06 08 4660
627717.9993838832 1013407.2026426785 82.2 27 06 12 4660
627738.2222918327 1013446.8007671802 81.2 27 06 16 4660
627793.8965506826 1013458.547585471 45.6 27 06 20 4660
627795.8991828323 1013461.1084873497 61.7 27 06 24 4660
627773.9949862064 1013455.5196467534 40.5 27 06 28 4660
627765.5318552441 1013459.5063744078 27.4 27 06 32 4660
627772.6081052473 1013490.2155242643 65.7 27 06 36 4660
627786.5365317977 1013464.6168022776 68.3 27 06 40 4660
627770.3549909749 1013463.1711487356 60.0 27 06 44 4660
627782.4635315472 1013480.4388496423 68.6 27 06 48 4660
627751.9187922333 1013509.9205288981 74.0 27 06 52 4660
627741.3414113655 1013474.5003662568 73.3 27 06 56 4660
627683.3270146037 1013469.4251575997 72.7 27 07 00 4660
627638.1546834444 1013431.4494120688 110.4 27 07 08 4660
627664.040876941 1013374.550601359 108.2 27 07 12 4660
627659.4603142438 1013340.0123847182 120.2 27 07 16 4660
627652.8965870013 1013334.296254329 121.9 27 07 20 4660
627648.1509027495 1013333.8607159916 123.0 27 07 24 4660
627646.8846998145 1013331.2358539995 140.8 27 07 28 4660
627655.7425211588 1013330.9327246278 133.8 27 07 32 4660
627648.609982741 1013327.813413335 142.0 27 07 36 4660
627655.2253103887 1013331.1632740933 126.3 27 07 40 4660
627664.3611043931 1013319.6481215635 145.4 27 07 44 4660
627660.7240091992 1013319.6031972312 132.4 27 07 48 4660
627660.0944909384 1013327.3860725326 123.1 27 07 52 4660
627654.286939016 1013312.0960625785 142.4 27 07 56 4660
627656.824038857 1013312.4912922472 128.8 27 08 00 4660
627639.4193871475 1013322.2767881538 144.7 27 08 08 4660
627611.5983045982 1013331.8185469192 140.7 27 08 12 4660
627562.5802981463 1013331.1073756402 122.0 27 08 16 4660
627559.9141213745 1013329.8492030631 144.5 27 08 20 4660
627555.4236159798 1013318.4448590131 125.6 27 08 24 4660
627549.5730690316 1013302.8451041303 144.5 27 08 28 4660
627535.7270023712 1013289.3427022791 163.4 27 08 32 4660
627517.2472215865 1013284.970406325 145.1 27 08 36 4660
627488.9132177875 1013266.1686777393 121.8 27 08 40 4660
627480.653515043 1013268.4089435455 84.4 27 08 44 4660
627487.7199311485 1013278.4061480823 114.1 27 08 48 4660
627488.5653383387 1013292.2536203734 113.7 27 08 52 4660
627490.4559723584 1013295.4776278216 109.6 27 08 56 4660
627513.2230205745 1013306.1336902368 121.0 27 09 00 4660
627556.6753953962 1013308.5187208073 124.7 27 09 08 4660
627565.7122833263 1013307.2098610797 113.4 27 09 12 4660
627580.8768077749 1013307.1482356974 130.0 27 09 16 4660
627622.8737806004 1013297.4421289826 129.3 27 09 20 4660
627675.7736987754 1013293.8643068298 117.9 27 09 24 4660
627674.732676801 1013309.9726093806 132.2 27 09 28 4660
627678.8998106301 1013305.8171656529 132.4 27 09 32 4660
627690.9453301822 1013301.808817814 127.4 27 09 36 4660
627705.3345729269 1013300.2297735511 114.1 27 09 40 4660
627721.0001748427 1013277.7329129018 100.7 27 09 44 4660
627724.2362958496 1013265.8448441644 94.0 27 09 48 4660
627731.4742773558 1013236.3430801575 86.0 27 09 52 4660
627740.6122943999 1013224.1534025174 89.6 27 09 56 4660
627755.6775434443 1013176.6301020609 76.1 27 10 00 4660
627800.1967206097 1013188.9821924933 65.5 27 10 08 4660
627832.7702477118 1013208.4171223787 71.6 27 10 12 4660
627842.7110560739 1013185.8575482894 89.7 27 10 16 4660
627879.636299586 1013181.4542389221 68.0 27 10 20 4660
627896.5752558311 1013159.4149332688 75.1 27 10 24 4660
627928.4679072947 1013141.3717791507 116.0 27 10 28 4660
627927.765817242 1013130.8200621832 88.3 27 10 32 4660
627985.0553470104 1013102.0000842188 130.7 27 10 36 4660
627917.7692801162 1013065.3236530591 40.2 27 10 40 4660
627914.0460391934 1013064.7255237612 37.2 27 10 41 4660
627925.2777208779 1013067.7475643108 111.6 27 10 44 4660
627914.3654086348 1013044.1363434932 134.0 27 10 48 4660
627874.3641118105 1012990.5077545278 90.6 27 10 52 4660
627868.2602380107 1012992.0914362998 89.1 27 10 56 4660
627867.2911643804 1012992.7296722746 87.9 27 11 00 4660
627864.1824924032 1012992.3768151548 94.7 27 11 08 4660
627892.2024597166 1012999.5778280766 94.0 27 11 12 4660
627880.4475702988 1012981.647767685 66.0 27 11 16 4660
627869.0790015765 1012952.9925905797 106.4 27 11 20 4660
627873.0617598089 1012954.8964112041 86.1 27 11 24 4660
627904.2409482369 1012974.006181725 139.9 27 11 28 4660
627902.6683078858 1012964.2036024968 117.1 27 11 32 4660
627918.5933947235 1012943.0898965884 75.0 27 11 36 4660
627951.2435865476 1012969.4475328996 98.0 27 11 40 4660
627969.3008807128 1012978.7726875743 72.9 27 11 44 4660
628011.0061050326 1013005.0159415121 77.4 27 11 48 4660
628034.0433597532 1013000.1254556208 61.7 27 11 52 4660
628071.196831017 1012993.1796715908 82.6 27 11 56 4660
628096.0360367006 1012995.1400363287 80.9 27 12 00 4660
627886.6711606977 1013085.7137136797 98.0 27 12 08 4660
627827.8850026067 1013091.4396451168 102.6 27 12 12 4660
627784.7354792359 1013083.6700236148 78.8 27 12 16 4660
627738.5344883371 1013098.64818186 71.7 27 12 20 4660
627762.3746866493 1013083.2881120072 81.5 27 12 24 4660
627717.0381944155 1013092.5852201513 89.6 27 12 28 4660
627721.0284761717 1013071.7535762227 80.4 27 12 32 4660
627717.604447876 1013073.77720463 94.7 27 12 36 4660
627689.2185536013 1013098.2234384349 60.8 27 12 40 4660
627696.9492181931 1013103.2909114513 71.3 27 12 44 4660
627712.8613815523 1013123.5344321831 92.5 27 12 48 4660
627709.9859736362 1013146.2163830587 93.5 27 12 52 4660
627693.68510713 1013168.0587714881 62.5 27 12 56 4660
627713.9142852849 1013222.7733174996 91.3 27 13 00 4660
627697.2627068936 1013257.9395910534 72.6 27 13 09 4660
627717.155995195 1013253.3594702065 91.9 27 13 12 4660
627628.6551091134 1013263.0147939639 49.0 27 13 16 4660
627728.6707806042 1013246.9719222717 122.4 27 13 20 4660
627703.3885988932 1013266.5294216876 110.5 27 13 24 4660
627696.124085431 1013277.0443265274 103.5 27 13 28 4660
627689.9349068595 1013311.8463170694 138.1 27 13 32 4660
627680.7670343177 1013329.8856461522 128.3 27 13 36 4660
627677.3502304432 1013333.0814581873 125.6 27 13 40 4660
627661.2695684503 1013348.0132428984 135.3 27 13 44 4660
627661.4957965477 1013356.2190910677 123.8 27 13 48 4660
627660.8591056349 1013356.0179881472 120.1 27 13 52 4660
627665.6122390644 1013381.3564157409 96.7 27 13 56 4660
627684.0394757647 1013408.7737218874 107.1 27 14 00 4660
627735.2556077621 1013436.5292476106 91.9 27 14 08 4660
627780.3125137691 1013469.3958946782 75.0 27 14 12 4660
627781.631382818 1013469.3227532092 60.9 27 14 16 4660
627783.5169599182 1013480.8956393105 65.7 27 14 20 4660
627795.1199269944 1013504.9845676195 79.6 27 14 24 4660
627800.4165084786 1013484.5773610073 68.2 27 14 28 4660
627778.8327552592 1013495.4329687433 53.6 27 14 32 4660
627790.5047175046 1013471.0101686848 55.2 27 14 36 4660
627778.7410263435 1013472.8298860068 51.4 27 14 40 4660
627783.8336142073 1013478.121076647 53.3 27 14 44 4660
627787.0990807775 1013487.7411396725 63.7 27 14 48 4660
627791.1743695221 1013484.8018038825 75.3 27 14 52 4660
627766.1425294273 1013484.7429652701 76.1 27 14 56 4660
627721.2351843375 1013504.1927466852 30.0 27 15 00 4660
627726.9077456018 1013469.4443784463 95.5 27 15 08 4660
627732.848582744 1013443.4880771585 74.9 27 15 12 4660
627739.7778806292 1013451.6824241175 80.6 27 15 16 4660
627734.7378582077 1013453.9219851333 96.0 27 15 20 4660
627737.3845248678 1013430.6200397526 101.8 27 15 24 4660
627745.5141599049 1013451.6125049256 104.5 27 15 28 4660
627778.1221016161 1013463.7381143434 31.5 27 15 32 4660
627787.0459630922 1013473.586580935 51.9 27 15 36 4660
627791.4127374765 1013479.0523550792 58.9 27 15 40 4660
627779.3721812624 1013478.1398221469 68.6 27 15 44 4660
627785.618702306 1013483.3905126095 83.1 27 15 48 4660
627784.1098551571 1013474.2516299288 66.3 27 15 52 4660
627786.6818497237 1013477.4446853519 80.4 27 15 56 4660
627788.1666816055 1013473.62337998 71.7 27 16 00 4660
627721.4353359637 1013469.4709205314 30.6 27 16 08 4660
627753.9063175258 1013459.3803181668 73.3 27 16 12 4660
627741.7411057025 1013463.0343952199 62.2 27 16 16 4660
627758.7785910286 1013471.637404174 96.4 27 16 20 4660
627758.4235041293 1013465.9081530939 92.5 27 16 24 4660
627761.361697011 1013467.9965792482 79.9 27 16 28 4660
627760.4732384579 1013467.4960912343 74.6 27 16 32 4660
627828.2863757259 1013476.926838004 80.3 27 16 36 4660
627820.2932241056 1013451.1245103775 72.0 27 16 40 4660
627831.0841059365 1013451.1041299776 66.8 27 16 44 4660
627805.7246307585 1013436.8234728179 93.8 27 16 48 4660
627779.5328018042 1013421.6776097157 90.8 27 16 52 4660
627756.327611858 1013417.422606604 84.4 27 16 56 4660
627759.0634749754 1013410.7191776959 92.5 27 17 00 4660
627756.6269829716 1013416.5942160579 117.2 27 17 08 4660
627727.8410720504 1013398.2773841672 78.6 27 17 12 4660
627732.5517313809 1013395.9482918706 117.6 27 17 16 4660
627726.1266653656 1013401.7330314758 143.1 27 17 20 4660
627707.0256593275 1013399.1942755767 124.4 27 17 24 4660
627718.3106182555 1013378.9059404844 133.9 27 17 28 4660
627745.8253760873 1013331.5555802785 165.5 27 17 32 4660
627722.3089616959 1013338.5788723445 157.0 27 17 36 4660
627710.0375017711 1013317.2965791804 132.3 27 17 40 4660
627650.9684902 1013352.8787073186 112.9 27 17 44 4660
627673.6835145991 1013366.0117207991 130.3 27 17 48 4660
627675.4780563342 1013368.361838418 134.8 27 17 52 4660
627724.104219157 1013364.5048890599 152.8 27 17 56 4660
627698.2257610656 1013391.7790171846 107.6 27 18 00 4660
627715.6794624955 1013417.8109314713 96.4 28 06 08 4660
627719.3549987411 1013419.5589355326 111.9 28 06 12 4660
627733.7872620183 1013418.2564987477 86.6 28 06 16 4660
627770.354081925 1013470.2483388319 77.3 28 06 20 4660
627806.9869356166 1013447.4433465771 114.8 28 06 24 4660
627800.8435115414 1013434.0984464478 66.9 28 06 28 4660
627766.6987307359 1013465.6584590685 54.9 28 06 32 4660
627732.4046539138 1013438.046050631 77.3 28 06 36 4660
627702.9109647356 1013424.5261684721 93.3 28 06 40 4660
627689.9745532724 1013394.7933327816 70.9 28 06 44 4660
627668.022453978 1013376.8082616248 109.4 28 06 48 4660
627670.113906565 1013362.0856165162 164.7 28 06 52 4660
627664.9488230033 1013341.8104718678 128.3 28 06 56 4660
627648.7193812346 1013324.5626826858 136.0 28 07 00 4660
627671.2068742868 1013306.0908797142 141.5 28 07 08 4660
627666.0693081343 1013297.7032928643 128.5 28 07 12 4660
627647.6477210039 1013285.5240968497 129.0 28 07 16 4660
627636.765795604 1013262.687129286 122.8 28 07 20 4660
627640.3820723421 1013289.5921287728 134.7 28 07 24 4660
627633.9261231803 1013281.12288228 132.0 28 07 28 4660
627637.8346610396 1013288.9867630091 140.6 28 07 32 4660
627648.8215508889 1013326.9515642585 147.6 28 07 36 4660
627601.0640337629 1013340.8411193497 135.6 28 07 40 4660
627551.3037258914 1013352.2251311878 144.0 28 07 44 4660
627566.060339185 1013332.1470136081 136.6 28 07 48 4660
627521.8535264188 1013332.0043298687 152.5 28 07 52 4660
627520.5434970375 1013339.5527876451 142.9 28 07 56 4660
627502.6537262406 1013349.856503394 131.4 28 08 00 4660
627476.9767185353 1013369.2359222078 137.3 28 08 08 4660
627455.6058245269 1013372.0310325454 130.2 28 08 12 4660
627431.0947451236 1013367.2191113833 111.3 28 08 16 4660
627422.4737432895 1013355.4254909223 122.3 28 08 20 4660
627386.7677588057 1013353.2425033319 123.2 28 08 24 4660
627328.1871955849 1013315.7989680339 120.3 28 08 28 4660
627333.6755401399 1013300.6007102864 121.5 28 08 32 4660
627335.3812054596 1013296.4373035565 122.1 28 08 36 4660
627331.3415760761 1013281.4958555786 114.3 28 08 40 4660
627328.3172098735 1013251.573958051 115.9 28 08 44 4660
627327.0989673132 1013217.0024219428 108.3 28 08 48 4660
627313.6229498528 1013225.0424758954 102.9 28 08 52 4660
627302.4758319985 1013192.3630682342 109.9 28 08 56 4660
627294.703023625 1013132.1377609149 217.1 28 09 00 4660
627268.4968533665 1013124.7439673772 175.4 28 09 08 4660
627258.4971530112 1013066.723126162 132.6 28 09 12 4660
627275.5282442644 1013050.0912984713 132.6 28 09 16 4660
627293.9761511851 1013060.9876367672 127.0 28 09 20 4660
627280.9882682005 1013030.0384388157 117.6 28 09 24 4660
627274.9011479116 1013023.0190652391 132.9 28 09 28 4660
627308.5320611255 1013028.1477407339 170.2 28 09 32 4660
627312.2591947939 1012996.8321612995 195.2 28 09 36 4660
627278.9206888417 1012952.0722195815 155.3 28 09 40 4660
627280.3051605639 1012948.6929005362 180.5 28 09 44 4660
627276.307852478 1012961.5405932843 183.7 28 09 48 4660
627242.6553857492 1012949.4342274865 170.4 28 09 52 4660
627250.4557063911 1012936.3002056376 180.4 28 09 56 4660
627219.6051818476 1012866.1921362161 164.7 28 10 00 4660
627244.6047242519 1012879.807695469 199.8 28 10 08 4660
627173.1912870366 1012855.1395306952 143.5 28 10 12 4660
627185.8841304183 1012882.2063336403 184.4 28 10 16 4660
627181.4761059994 1012865.6050181313 186.5 28 10 20 4660
627192.7953621963 1012865.3428649623 219.4 28 10 24 4660
627106.5672760474 1012848.0582040178 167.0 28 10 28 4660
627171.3663393742 1012875.8896940162 241.8 28 10 32 4660
627131.6899410579 1012864.4054289119 198.9 28 10 36 4660
627052.1607379719 1012841.6023314719 129.8 28 10 40 4660
627075.9611397594 1012865.9181481563 165.2 28 10 44 4660
627045.6262715489 1012857.5049747522 177.1 28 10 48 4660
627042.7365277893 1012850.5733276664 161.2 28 10 52 4660
627025.936731299 1012843.1104303591 172.8 28 10 56 4660
627016.7336778678 1012837.972027757 172.8 28 11 00 4660
627013.4900416326 1012766.74755046 173.3 28 11 08 4660
627049.072177409 1012742.6557238573 167.0 28 11 12 4660
627053.0769543975 1012727.4637263041 166.2 28 11 16 4660
627060.2112579601 1012723.2403469349 166.9 28 11 20 4660
627133.7078381185 1012718.7105564189 171.4 28 11 24 4660
627118.0225117707 1012713.2195481953 212.6 28 11 28 4660
627146.7616438901 1012654.0516607465 109.9 28 11 32 4660
627104.9469401884 1012661.6026013308 173.4 28 11 36 4660
627105.0585821568 1012647.3822619118 166.0 28 11 40 4660
627117.9590161375 1012640.6782976807 143.4 28 11 45 4660
627113.3649833249 1012657.9915506165 171.3 28 11 48 4660
627106.2362395637 1012636.5491232964 150.6 28 11 52 4660
627104.06815482 1012634.1536079411 157.3 28 11 56 4660
627082.4995962452 1012609.4468740226 172.6 28 12 00 4660
627075.2802108685 1012629.8811305297 173.6 28 12 08 4660
627084.650379728 1012634.3234187214 146.4 28 12 12 4660
627058.8456919022 1012662.6044824687 120.7 28 12 16 4660
627051.9567990871 1012669.106617136 162.1 28 12 20 4660
627030.6395516417 1012634.5811425076 209.1 28 12 24 4660
626991.881518653 1012662.1129173056 175.1 28 12 28 4660
626991.9226623591 1012645.8797854815 159.4 28 12 32 4660
626973.4669663722 1012661.2797173328 158.1 28 12 36 4660
626969.6177328273 1012648.5726805547 168.2 28 12 40 4660
626972.3770456123 1012658.489581138 175.7 28 12 44 4660
626946.4128034891 1012657.7759076882 187.1 28 12 48 4660
626939.1838496845 1012664.1000387255 177.3 28 12 52 4660
626940.4964176907 1012659.1502325301 186.1 28 12 56 4660
626861.9063692163 1012648.3043826403 169.9 28 13 00 4660
627015.213905072 1012678.2331343716 189.3 28 13 08 4660
627068.1467576381 1012681.7095656461 196.7 28 13 12 4660
627124.5392037919 1012692.6061092155 174.5 28 13 16 4660
627158.5540505146 1012698.0344206962 177.1 28 13 20 4660
627209.6516850363 1012657.1290308767 195.2 28 13 24 4660
627226.7351318192 1012651.5885984824 174.9 28 13 28 4660
627219.2756690204 1012640.7387290854 166.7 28 13 32 4660
627241.6418652626 1012663.4134290103 176.7 28 13 36 4660
627236.2058357722 1012665.7623685179 189.2 28 13 40 4660
627241.6381354316 1012661.1575665115 170.1 28 13 44 4660
627250.3405766402 1012644.2998655532 101.8 28 13 48 4660
627241.8984545311 1012658.8030308614 145.6 28 13 52 4660
627234.7902627323 1012658.3157187939 145.2 28 13 56 4660
627253.9334949118 1012675.1635018522 156.1 28 14 00 4660
627252.3961436412 1012691.9005044469 151.9 28 14 08 4660
627245.8162972713 1012694.5553877781 167.1 28 14 12 4660
627223.8316137155 1012730.9099958441 211.2 28 14 16 4660
627239.2538351585 1012770.3485418318 159.3 28 14 20 4660
627245.3260669338 1012778.5953034805 149.7 28 14 24 4660
627240.0042090866 1012779.6176370955 142.8 28 14 28 4660
627241.9597916779 1012813.892955904 141.7 28 14 32 4660
627234.8937321296 1012813.9807965611 197.9 28 14 36 4660
627266.6895802121 1012819.1477394345 139.8 28 14 40 4660
627264.4287197344 1012821.6838231058 128.6 28 14 44 4660
627273.6080664296 1012827.3529990438 151.7 28 14 48 4660
627294.362934038 1012862.3855098531 148.8 28 14 52 4660
627299.6484465691 1012903.3617086624 150.6 28 14 56 4660
627304.0702100105 1012929.3292947115 146.3 28 15 00 4660
627313.2920975728 1012894.4817622789 165.9 28 15 08 4660
627317.6485319749 1012872.4901836251 146.0 28 15 12 4660
627312.5014420712 1012863.6050164407 137.0 28 15 16 4660
627356.5915278256 1012852.3793004921 162.1 28 15 20 4660
627381.4643549059 1012874.6198583782 144.6 28 15 24 4660
627399.5542051864 1012887.5276582784 164.2 28 15 28 4660
627396.1524089053 1012889.4739792182 161.8 28 15 32 4660
627444.8359524191 1012898.6542994388 163.4 28 15 36 4660
627479.0226308536 1012857.5509827902 143.0 28 15 40 4660
627507.9589665852 1012866.8667540059 140.5 28 15 44 4660
627552.487394723 1012890.0997123234 130.1 28 15 48 4660
627560.5602671886 1012881.0802311443 117.0 28 15 52 4660
627575.0487595204 1012882.8409884692 131.7 28 15 56 4660
627577.8011329492 1012877.829491219 125.6 28 16 00 4660
627591.5513035138 1012893.8528266875 137.1 28 16 08 4660
627603.5126843001 1012898.922870707 118.8 28 16 12 4660
627612.073294978 1012902.2126441495 124.0 28 16 16 4660
627622.0881049341 1012911.1688642032 149.0 28 16 20 4660
627622.0691199328 1012913.6458185884 142.9 28 16 24 4660
627631.4636417492 1012903.7017360646 127.0 28 16 28 4660
627643.1786047544 1012903.4078159778 127.2 28 16 32 4660
627630.9897928874 1012876.8842995017 69.4 28 16 36 4660
627665.8471838015 1012900.384743912 129.4 28 16 40 4660
627668.0193487651 1012894.6968333666 136.9 28 16 44 4660
627669.3135907841 1012892.0470672189 117.3 28 16 48 4660
627688.7912101793 1012903.9421483274 112.7 28 16 52 4660
627686.308562039 1012893.484217682 82.9 28 16 56 4660
627703.1377574013 1012908.8208825311 108.3 28 17 00 4660
627709.6155195166 1012910.5558150157 115.6 28 17 08 4660
627717.15952019 1012932.5968816751 101.3 28 17 12 4660
627723.331979378 1012919.9884627655 76.5 28 17 16 4660
627732.2056307137 1012942.0227715111 108.9 28 17 20 4660
627718.6981252107 1012912.133292382 83.2 28 17 24 4660
627674.0724261939 1012936.0626455954 76.1 28 17 28 4660
627665.5452655393 1012953.0424759951 117.3 28 17 32 4660
627635.3095348792 1012961.6143970385 92.0 28 17 36 4660
627636.7828236779 1012964.7707143018 105.1 28 17 40 4660
627628.198623893 1012955.177736737 94.5 28 17 44 4660
627622.7414680953 1012964.0729518232 104.4 28 17 48 4660
627619.7167983176 1012971.7375124723 121.7 28 17 52 4660
627615.2459024539 1012984.8822248444 112.7 28 17 56 4660
627556.543958321 1012988.3308759264 99.9 28 18 00 4660
627501.8574756343 1012949.4842672438 114.2 29 06 08 4660
627516.885883087 1012950.7823073278 154.8 29 06 12 4660
627517.1856814716 1012953.2271149706 151.8 29 06 16 4660
627517.1174623381 1012947.1228225324 109.5 29 06 20 4660
627497.3869119843 1012969.3523148912 128.0 29 06 24 4660
627455.8163611357 1012935.3251833511 144.1 29 06 28 4660
627456.8670622632 1012936.6334267478 153.3 29 06 32 4660
627456.4238093497 1012937.782040022 157.4 29 06 36 4660
627462.0601187366 1012938.0656071365 158.2 29 06 40 4660
627461.2764177509 1012932.334984432 144.9 29 06 44 4660
627492.8304966062 1012920.4386957113 206.6 29 06 48 4660
627404.8869752242 1012896.756239221 73.5 29 06 52 4660
627423.6637517645 1012890.8674988896 145.2 29 06 56 4660
627509.789608733 1012864.849025723 185.1 29 07 00 4660
627547.223830426 1012859.4296692328 200.1 29 07 08 4660
627557.6469944969 1012837.1922782687 192.1 29 07 12 4660
627523.9499501949 1012828.668357593 137.3 29 07 16 4660
627536.0912785449 1012832.4672761019 148.7 29 07 20 4660
627538.2708478804 1012827.8851946475 150.1 29 07 24 4660
627521.5925959976 1012827.0462711704 138.9 29 07 28 4660
627513.7835707399 1012815.587007659 154.6 29 07 32 4660
627493.5710842134 1012803.2362737426 157.3 29 07 36 4660
627499.5740481578 1012768.2014528215 121.7 29 07 40 4660
627496.1778641435 1012764.9947103142 135.0 29 07 44 4660
627487.1624068937 1012783.4768996612 150.4 29 07 48 4660
627470.139528598 1012797.4989750145 127.4 29 07 52 4660
627419.8987736086 1012804.3368044895 137.0 29 07 56 4660
627416.2951020009 1012824.5946839695 154.5 29 08 00 4660
627366.0380583167 1012802.3939637871 139.3 29 08 08 4660
627336.1586296777 1012806.1017053119 168.6 29 08 12 4660
627333.0716391802 1012781.9519425292 146.6 29 08 16 4660
627315.714890321 1012780.2373343601 150.2 29 08 20 4660
627297.6360738795 1012743.399905121 139.3 29 08 24 4660
627299.1768257488 1012746.091982257 127.0 29 08 28 4660
627288.0505750214 1012720.5230261445 154.1 29 08 32 4660
627249.1197208593 1012699.2767652828 160.5 29 08 36 4660
627252.6307062147 1012694.1349937456 164.3 29 08 40 4660
627241.7853198439 1012683.7165452224 146.0 29 08 44 4660
627224.6759873028 1012669.9826352645 152.2 29 08 48 4660
627192.4289413082 1012671.8140615451 167.8 29 08 52 4660
627171.0557979697 1012627.3692106792 163.3 29 08 56 4660
627147.081562946 1012602.4003645523 165.2 29 09 00 4660
627122.6948642738 1012589.5056411371 152.0 29 09 08 4660
627118.0784022383 1012593.2837248413 173.2 29 09 12 4660
627109.4787209841 1012591.8627634756 152.6 29 09 16 4660
627099.5377702424 1012587.219590401 149.1 29 09 20 4660
627091.9269870347 1012596.0858304091 162.1 29 09 24 4660
627085.9088786808 1012598.333397064 147.5 29 09 28 4660
627067.179632842 1012582.5707322661 162.6 29 09 32 4660
627051.7294068559 1012596.2331147474 156.4 29 09 36 4660
627052.9529547524 1012595.0538308573 177.7 29 09 40 4660
627064.4732868037 1012597.2139976567 154.0 29 09 44 4660
627033.5630528128 1012617.3288664555 153.8 29 09 48 4660
627040.7036336157 1012635.1000293595 187.1 29 09 52 4660
627021.8234308311 1012628.7030968188 153.8 29 09 56 4660
627025.2587341825 1012619.7460266224 164.3 29 10 00 4660
626987.2558532113 1012624.2794234994 162.7 29 10 08 4660
626998.5154018837 1012618.6759609038 183.1 29 10 12 4660
626979.1962084409 1012605.2557593597 165.1 29 10 16 4660
626981.603659242 1012598.1310275006 174.7 29 10 20 4660
626952.6981672867 1012596.235754123 192.7 29 10 24 4660
626908.8255283565 1012604.7312929413 166.0 29 10 28 4660
626886.5196505195 1012635.1136607422 176.0 29 10 32 4660
626865.5788962683 1012647.5973899326 171.5 29 10 36 4660
626871.5845338579 1012659.5040913495 179.7 29 10 40 4660
626846.7599294808 1012659.7893668271 168.8 29 10 44 4660
626808.3871390756 1012683.7507797455 171.9 29 10 48 4660
626811.34106114 1012691.2465700126 171.2 29 10 52 4660
626807.5584756222 1012692.0085045549 167.1 29 10 56 4660
626794.0148653894 1012693.7011909554 184.2 29 11 00 4660
626805.2246173471 1012696.7559924335 180.1 29 11 08 4660
626804.9966257417 1012692.464728076 183.0 29 11 12 4660
626791.444515724 1012686.5273164667 185.9 29 11 16 4660
626790.5582038129 1012671.6403059701 178.1 29 11 20 4660
626785.9127026964 1012650.2169785844 127.6 29 11 24 4660
626766.5839645037 1012653.4724323011 27.4 29 11 28 4660
626780.3271137421 1012661.5225380554 168.8 29 11 32 4660
626751.7870343599 1012665.6331120319 154.4 29 11 36 4660
626716.9836192055 1012693.6643599978 178.8 29 11 40 4660
626743.7436854694 1012692.9207706186 158.5 29 11 44 4660
626710.0223391057 1012698.7729974089 184.1 29 11 48 4660
626710.6044622179 1012705.7193320272 183.6 29 11 52 4660
626778.4242636273 1012720.3453926331 157.0 29 11 56 4660
626833.4176234012 1012725.4757745799 177.0 29 12 00 4660
626912.7993389831 1012736.125082469 171.4 29 12 08 4660
626912.706382104 1012747.9679871246 190.5 29 12 12 4660
626896.7647212103 1012753.8660674107 163.4 29 12 16 4660
626885.5414350728 1012734.489469762 177.2 29 12 20 4660
626874.4843949059 1012745.489950481 150.6 29 12 24 4660
626872.8626368374 1012737.2133042763 179.0 29 12 28 4660
626864.9878518544 1012746.189312109 167.1 29 12 32 4660
626897.3957308788 1012731.8735737543 215.3 29 12 36 4660
626896.873520006 1012713.1173963018 222.4 29 12 40 4660
626882.1049649867 1012743.8225182262 176.4 29 12 44 4660
626887.9360631392 1012748.4745655619 184.1 29 12 48 4660
626865.0771652671 1012738.9023254776 148.8 29 12 52 4660
626920.681699825 1012772.7194533887 238.0 29 12 56 4660
626914.48809217 1012750.9151552223 196.1 29 13 00 4660
626891.2555139733 1012789.3005871199 186.5 29 13 08 4660
626910.6449521289 1012804.7777829322 189.5 29 13 12 4660
626942.4818776574 1012827.9582044885 170.7 29 13 16 4660
626955.0929169792 1012812.1082351354 183.8 29 13 20 4660
626975.6031857618 1012800.2092555915 149.7 29 13 24 4660
626989.4968832417 1012816.1001105162 169.1 29 13 28 4660
626991.4887451059 1012825.4616462382 194.6 29 13 32 4660
627014.6673192492 1012817.5963993887 184.3 29 13 36 4660
627013.3034956485 1012821.3959986968 182.6 29 13 40 4660
627007.8573565703 1012830.3244923239 163.3 29 13 44 4660
627035.6618476786 1012815.7286870665 183.7 29 13 48 4660
627006.1519262118 1012824.1596613931 166.1 29 13 52 4660
627002.7002474219 1012814.273705237 175.0 29 13 56 4660
627004.6493580212 1012812.997228734 166.7 29 14 00 4660
627046.5204307463 1012770.7461166703 167.0 29 14 08 4660
627039.925313207 1012757.6432120621 177.9 29 14 12 4660
627068.976996061 1012714.0128990661 175.9 29 14 16 4660
627114.3830678351 1012724.1442955269 170.8 29 14 20 4660
627173.908224422 1012707.4057688863 154.3 29 14 24 4660
627191.6143395025 1012696.1724113761 167.3 29 14 28 4660
627194.1496619139 1012652.7222768173 149.3 29 14 32 4660
627244.1052411543 1012669.6581190197 159.2 29 14 36 4660
627234.1893300939 1012660.6581003746 166.0 29 14 40 4660
627242.6074788477 1012646.7741097532 152.5 29 14 44 4660
627237.8186299123 1012656.312890641 151.5 29 14 48 4660
627251.8325916522 1012658.724417503 154.7 29 14 52 4660
627257.5041468774 1012658.3114038415 150.1 29 14 56 4660
627255.2942218755 1012668.9200594053 145.1 29 15 00 4660
627275.2668382113 1012704.6245707797 161.1 29 15 08 4660
627286.3512205067 1012715.895272936 173.1 29 15 12 4660
627275.2505719 1012709.6780665222 124.9 29 15 16 4660
627288.6642233959 1012734.7125345584 166.6 29 15 20 4660
627287.3369430193 1012733.9784276123 142.6 29 15 24 4660
627282.9048349711 1012758.9996816384 179.7 29 15 28 4660
627294.3516902342 1012797.618220034 142.2 29 15 32 4660
627325.3530122538 1012844.7702363455 200.7 29 15 36 4660
627312.8867880421 1012839.488553734 195.2 29 15 40 4660
627321.2371673663 1012870.5333998818 275.4 29 15 44 4660
627295.8415360083 1012860.4882785748 169.1 29 15 48 4660
627283.5452216351 1012867.2825899868 200.5 29 15 52 4660
627280.3973200961 1012875.6987223268 143.1 29 15 56 4660
627302.687418728 1012904.8864534029 197.9 29 16 00 4660
627309.788352609 1012904.2016021124 215.9 29 16 08 4660
627306.5824979385 1012916.9633773386 216.3 29 16 12 4660
627288.4227536084 1012905.2828452734 182.6 29 16 16 4660
627291.9926559695 1012909.1425564542 191.7 29 16 20 4660
627265.2413993827 1012907.1765533525 185.9 29 16 24 4660
627307.9226883037 1012882.9751110559 193.1 29 16 28 4660
627344.1631363024 1012842.1768766016 182.7 29 16 32 4660
627325.8214911239 1012832.3756209755 155.0 29 16 36 4660
627320.9313787039 1012828.9982119242 144.2 29 16 40 4660
627333.0307614682 1012839.0005218006 171.5 29 16 44 4660
627313.7019694339 1012849.1006627121 185.5 29 16 48 4660
627334.3445913328 1012840.4975961103 130.3 29 16 52 4660
627356.9506422265 1012863.7039475209 190.4 29 16 56 4660
627363.4479965251 1012855.9510370194 183.7 29 17 00 4660
627395.4618608459 1012868.4724270154 179.6 29 17 08 4660
627390.5291716701 1012868.0805569981 183.0 29 17 12 4660
627393.5086261078 1012867.6146595014 170.1 29 17 16 4660
627406.9854551586 1012869.5932557276 200.6 29 17 20 4660
627354.0873632595 1012851.9842004307 157.7 29 17 24 4660
627355.9897353895 1012848.1642274078 141.6 29 17 28 4660
627276.5841310937 1012913.2729048284 154.1 29 17 32 4660
627273.0012180756 1012957.8254858324 148.8 29 17 36 4660
627304.6006488644 1013017.1212164519 148.6 29 17 40 4660
627323.0867502582 1013029.8091017039 162.0 29 17 44 4660
627343.1856952347 1013026.2136171529 173.2 29 17 48 4660
627309.3624465618 1013046.6837827235 144.3 29 17 52 4660
627305.4920825938 1013061.0578991047 129.3 29 17 56 4660
627351.9070211883 1013102.3988276626 123.9 29 18 00 4660
627281.733881283 1012952.048103058 166.6 30 06 08 4660
627286.0728535125 1012952.5375718647 163.9 30 06 12 4660
627281.8482404669 1012954.0721024245 145.9 30 06 16 4660
627281.5777619926 1012952.7553183875 164.3 30 06 20 4660
627283.6298515334 1012963.8642519235 161.0 30 06 24 4660
627280.1980351151 1012961.4867700267 164.5 30 06 28 4660
627218.6919418245 1012955.3395291371 152.5 30 06 32 4660
627201.9393319783 1012929.818836337 157.0 30 06 36 4660
627188.535325375 1012922.2893815782 145.2 30 06 40 4660
627186.7098178839 1012902.224132898 144.4 30 06 44 4660
627194.080445001 1012879.1917282884 152.7 30 06 48 4660
627179.57861859 1012837.1685658747 132.8 30 06 52 4660
627164.7132645075 1012826.1621833585 145.0 30 06 56 4660
627173.0303919599 1012823.170077216 159.4 30 07 00 4660
627156.6452949042 1012775.6007701972 177.7 30 07 08 4660
627116.3984001817 1012753.5431687571 159.2 30 07 12 4660
627122.0767550188 1012740.7561602223 173.9 30 07 16 4660
627138.0945891843 1012707.7660968277 162.9 30 07 20 4660
627137.7793642218 1012703.2754998619 179.6 30 07 24 4660
627128.5930767717 1012703.1685573285 156.4 30 07 28 4660
627128.7534955047 1012701.1233270213 131.5 30 07 32 4660
627133.7649303835 1012690.7006054657 170.6 30 07 36 4660
627135.8761997925 1012669.7523188019 145.4 30 07 40 4660
627147.9689031328 1012647.6860843262 157.5 30 07 44 4660
627170.2516662208 1012672.3951592069 128.3 30 07 48 4660
627225.8700323846 1012636.9891362967 145.8 30 07 52 4660
