626711.6184395994 1012502.4420538241 179.2 7 14 28 4657
626716.0839456237 1012508.0406870578 184.4 7 14 32 4657
626723.3548162659 1012526.3540339909 168.1 7 14 36 4657
626732.5069870744 1012516.5416773952 188.1 7 14 40 4657
626729.7089470909 1012522.1170373794 185.0 7 14 44 4657
626729.3394648285 1012541.4011304063 188.0 7 14 48 4657
626725.3018782745 1012529.1469070066 171.6 7 14 52 4657
626728.5010114729 1012528.7148353998 192.8 7 14 56 4657
626733.3449474274 1012532.8107862275 175.3 7 15 00 4657
626735.3967605724 1012540.6354182893 189.1 7 15 08 4657
626730.3898315653 1012563.3990011803 182.3 7 15 12 4657
626729.8362158908 1012602.4211631058 173.8 7 15 16 4657
626729.2528524068 1012637.0089433537 163.9 7 15 20 4657
626730.3835680936 1012657.9344399961 160.2 7 15 24 4657
626726.2385081856 1012672.3629982044 164.5 7 15 28 4657
626720.0736815805 1012668.9705294615 164.3 7 15 32 4657
626710.2756418205 1012664.3057991874 177.8 7 15 36 4657
626712.697264873 1012666.4588250491 161.2 7 15 40 4657
626709.2481672677 1012666.0275659476 153.2 7 15 44 4657
626718.674737045 1012690.5956354279 184.0 7 15 48 4657
626730.1266648471 1012686.662488996 162.0 7 15 52 4657
626737.2912395721 1012679.8405048554 173.8 7 15 56 4657
626738.6209491409 1012703.8186688401 144.4 7 16 00 4657
626747.0891689656 1012698.2504273937 171.7 7 16 08 4657
626744.7064711861 1012697.6677700642 161.8 7 16 12 4657
626745.5552215617 1012696.852193224 166.3 7 16 16 4657
626747.1165345531 1012699.997690686 153.2 7 16 20 4657
626747.4620038659 1012698.4949001074 158.8 7 16 24 4657
626746.9958713555 1012696.5029527621 167.4 7 16 28 4657
626749.4480458271 1012695.9800256 173.5 7 16 32 4657
626746.0884203925 1012698.4904971765 163.7 7 16 36 4657
626747.8139248036 1012698.4075635879 170.8 7 16 40 4657
626747.4902201348 1012699.9767723706 161.6 7 16 44 4657
626743.020274447 1012685.487426758 165.0 7 16 48 4657
626753.9381208433 1012663.0524181486 159.4 7 16 52 4657
626748.2361304574 1012659.2522798327 164.2 7 16 56 4657
626741.4390649139 1012657.693421359 151.4 7 17 00 4657
626743.9255831209 1012639.5993258822 161.3 7 17 08 4657
626754.0046496121 1012625.1566145937 166.8 7 17 12 4657
626759.3215749987 1012591.3912441703 155.2 7 17 16 4657
626772.8674854286 1012588.99083238 167.0 7 17 20 4657
626782.8390609156 1012577.2348931793 173.3 7 17 24 4657
626799.1727695249 1012534.7579079346 162.1 7 17 28 4657
626807.0178260877 1012487.0785291402 160.4 7 17 32 4657
626806.7503826233 1012474.5267574878 162.3 7 17 36 4657
626806.0789059924 1012464.6055121545 170.6 7 17 40 4657
626809.9481236556 1012443.6849834613 173.1 7 17 44 4657
626800.823435379 1012420.9203293931 180.4 7 17 48 4657
626788.6064653421 1012406.3840309528 159.9 7 17 52 4657
626777.7256495456 1012396.6733398573 167.1 7 17 56 4657
626776.9505979782 1012343.6363400987 182.6 7 18 00 4657
626699.2466823065 1012141.6881929274 191.0 8 06 08 4657
626708.2349508548 1012159.0560301979 191.5 8 06 12 4657
626705.453595445 1012142.2609741167 190.0 8 06 16 4657
626700.0698031912 1012148.8785734341 186.5 8 06 20 4657
626697.5677250855 1012161.5431070704 182.9 8 06 24 4657
626699.1124594877 1012169.8747796689 201.0 8 06 28 4657
626698.1874621806 1012173.9080123698 192.1 8 06 32 4657
626697.1335524141 1012170.1559519941 167.6 8 06 36 4657
626693.3760176218 1012159.6498118951 187.0 8 06 40 4657
626729.2023297099 1012162.3300286536 184.9 8 06 44 4657
626775.0624103948 1012154.4487974835 175.5 8 06 48 4657
626820.7527568268 1012151.5321477329 173.4 8 06 52 4657
626813.7393549152 1012104.3027554705 155.3 8 06 56 4657
626816.8554688699 1012102.3554645912 162.1 8 07 00 4657
626807.2041917659 1012110.1425876119 172.1 8 07 08 4657
626805.2731029149 1012116.0745830685 188.1 8 07 12 4657
626811.3422293823 1012104.7816274209 160.8 8 07 16 4657
626789.4910290199 1012096.1084174436 159.5 8 07 20 4657
626820.2135899488 1012117.4715555623 178.2 8 07 24 4657
626825.0420474139 1012119.554892694 167.0 8 07 28 4657
626797.9743842902 1012154.4337586132 175.4 8 07 32 4657
626797.6049817875 1012153.1166641224 187.1 8 07 36 4657
626787.9426156511 1012150.6529220204 173.7 8 07 40 4657
626798.31960263 1012142.7243668053 176.6 8 07 44 4657
626790.0326119273 1012143.1401311704 163.1 8 07 48 4657
626792.5373195068 1012143.3803776912 174.3 8 07 52 4657
626836.3215442149 1012148.8949453862 183.2 8 07 56 4657
626832.5687207251 1012140.3571398656 186.7 8 08 00 4657
626819.7398324731 1012131.5690795467 158.1 8 08 08 4657
626823.280078286 1012131.0054080118 165.6 8 08 12 4657
626822.6433642909 1012130.8043216952 155.3 8 08 16 4657
626837.4940868143 1012149.916047241 167.6 8 08 20 4657
626831.7181504484 1012138.3086695856 219.3 8 08 24 4657
626801.0532522479 1012119.5332930924 133.1 8 08 28 4657
626807.2981313718 1012115.1190211382 158.8 8 08 32 4657
626819.7193453086 1012141.3885824095 202.6 8 08 36 4657
626823.696980994 1012141.5008555116 167.7 8 08 40 4657
626831.4562619777 1012137.7328102293 167.6 8 08 44 4657
626821.2980138351 1012139.1267379237 164.4 8 08 48 4657
626800.9723122064 1012155.0736771249 176.6 8 08 52 4657
626806.9548490293 1012181.0793220624 164.0 8 08 56 4657
626810.6599623706 1012201.0731354867 187.5 8 09 00 4657
626807.0331335454 1012249.2194167379 168.0 8 09 08 4657
626802.4078109673 1012262.618032707 164.7 8 09 12 4657
626825.0887823806 1012262.6575674086 239.0 8 09 16 4657
626811.7059548483 1012299.8471966604 188.1 8 09 20 4657
626792.1733685917 1012322.0776585898 194.2 8 09 24 4657
626811.010990824 1012352.0943657019 195.0 8 09 28 4657
626818.3032890118 1012394.569690969 180.0 8 09 32 4657
626822.315002531 1012390.9002150724 171.7 8 09 36 4657
626815.0490595805 1012391.6178095159 165.2 8 09 40 4657
626805.655798663 1012397.7802154534 166.6 8 09 44 4657
626809.7598491516 1012399.584781018 184.8 8 09 48 4657
626808.9073720826 1012394.7054374064 181.2 8 09 52 4657
626798.5767709828 1012408.7492460279 188.9 8 09 56 4657
626787.8700762361 1012396.1418948036 172.7 8 10 00 4657
626780.7940681895 1012413.0270066002 169.3 8 10 08 4657
626771.0218104203 1012414.0130267291 178.9 8 10 12 4657
626765.2290121844 1012428.248315714 171.4 8 10 16 4657
626769.1273966737 1012435.935112685 176.9 8 10 20 4657
626767.7076903655 1012443.4611097237 177.9 8 10 24 4657
626774.4698057958 1012442.2221635443 180.9 8 10 28 4657
626753.347389962 1012439.3678311682 174.6 8 10 32 4657
626734.47902867 1012449.8125347928 176.5 8 10 36 4657
626726.573996543 1012437.357933412 187.7 8 10 40 4657
626705.5554641453 1012446.6678375216 189.8 8 10 44 4657
626696.8471578453 1012455.1325385257 176.6 8 10 48 4657
626694.4439745169 1012447.2183202305 195.7 8 10 52 4657
626697.7391783623 1012447.6711987049 188.8 8 10 56 4657
626696.1538480252 1012458.8790033476 194.7 8 11 00 4657
626695.74840842 1012479.1029148406 190.8 8 11 08 4657
626729.1463256335 1012522.8008349399 180.2 8 11 12 4657
626728.7414955193 1012535.9697010231 173.6 8 11 16 4657
626737.5827344989 1012540.8857011897 173.5 8 11 20 4657
626728.1200882087 1012589.2897320165 161.9 8 11 24 4657
626718.3770887483 1012656.6021679649 161.7 8 11 28 4657
626703.2325383392 1012664.0841856006 172.3 8 11 32 4657
626681.9185434061 1012679.9063442822 152.8 8 11 36 4657
626678.3131258069 1012680.2486519096 149.1 8 11 40 4657
626682.7518296331 1012694.2070995853 203.5 8 11 44 4657
626673.9322019271 1012703.1358814584 139.4 8 11 48 4657
626685.985597394 1012703.5394139837 163.9 8 11 52 4657
626679.276760375 1012698.4533235739 163.1 8 11 56 4657
626669.3561143571 1012711.4811230593 157.0 8 12 01 4657
626667.613409376 1012723.7942308794 159.6 8 12 04 4657
626658.8135409725 1012719.6966715124 150.8 8 12 08 4657
626658.2665837472 1012732.6439197154 155.4 8 12 12 4657
626641.2545812031 1012770.8171759683 160.4 8 12 16 4657
626641.7996657066 1012761.8840014103 167.8 8 12 20 4657
626478.5393225325 1012682.9929199298 201.8 8 12 24 4657
626422.921691694 1012635.9509957057 179.4 8 12 28 4657
626442.6524084111 1012634.123152 165.6 8 12 32 4657
626471.4912716864 1012674.0133453424 185.3 8 12 36 4657
626468.5020364868 1012674.1033072692 179.5 8 12 40 4657
626473.0627891999 1012663.6680244189 163.8 8 12 44 4657
626463.7138938454 1012680.048289536 213.7 8 12 48 4657
626463.6372451272 1012659.3473504372 184.6 8 12 52 4657
626425.1143485691 1012668.4797647987 170.3 8 12 56 4657
626422.5173982251 1012679.9165556362 167.2 8 13 00 4657
626414.9810204499 1012675.8783849666 176.2 8 13 08 4657
626402.3051555237 1012701.7579574619 176.0 8 13 12 4657
626390.5038896401 1012715.2995321658 149.7 8 13 16 4657
626365.0393180747 1012743.9359248074 142.9 8 13 20 4657
626365.091219751 1012748.3261404799 143.6 8 13 24 4657
626366.641991512 1012754.7779456872 147.2 8 13 28 4657
626364.4362036949 1012760.7311903768 152.8 8 13 32 4657
626360.027589594 1012785.4650389347 130.9 8 13 36 4657
626361.6068516705 1012772.6869688163 154.3 8 13 40 4657
626359.0958948031 1012774.415059447 157.4 8 13 44 4657
626348.028360091 1012781.8770548883 157.5 8 13 48 4657
626351.3976660351 1012779.7646745982 158.6 8 13 52 4657
626350.3840642605 1012773.7126768469 157.2 8 13 56 4657
626352.2377847042 1012778.2081729583 153.8 8 14 00 4657
626303.8090553015 1012785.5065693149 158.9 8 14 08 4657
626272.3500509558 1012778.0745939335 141.9 8 14 12 4657
626243.8785168532 1012764.2163953664 145.9 8 14 16 4657
626244.6691767557 1012767.8238460827 143.2 8 14 20 4657
626250.7896957161 1012764.4485659411 148.1 8 14 24 4657
626257.4789554743 1012751.5872905459 148.4 8 14 28 4657
626256.042042654 1012743.8862951371 149.3 8 14 32 4657
626268.8923347854 1012752.818007881 153.6 8 14 37 4657
626242.4658762146 1012742.0294253207 133.2 8 14 40 4657
626235.2162174319 1012747.9997451024 154.9 8 14 44 4657
626234.8126296477 1012743.6194666775 156.3 8 14 49 4657
626216.6085382962 1012749.1677855882 140.8 8 14 53 4657
626253.4760051601 1012745.6584484348 163.8 8 14 56 4657
626205.3248334832 1012748.6230969521 139.2 8 15 00 4657
626184.5988185536 1012721.4647158807 126.8 8 15 08 4657
626185.7444441193 1012734.3620622903 113.9 8 15 12 4657
626181.3285780117 1012737.3004701525 121.4 8 15 16 4657
626164.5083616249 1012736.1852229522 116.9 8 15 20 4657
626172.5763587434 1012745.8093574904 122.0 8 15 24 4657
626149.6270776946 1012754.1955414775 120.5 8 15 28 4657
626131.9334360586 1012720.3014556238 139.6 8 15 32 4657
626115.9188428443 1012693.9875021027 138.5 8 15 36 4657
626113.0632035945 1012669.4184637313 168.2 8 15 40 4657
626105.4314141336 1012667.7243586665 127.7 8 15 44 4657
626095.5704215083 1012662.1085967898 138.5 8 15 48 4657
626084.251320551 1012645.0873394724 142.2 8 15 52 4657
626093.5433320483 1012643.0491129493 103.3 8 15 56 4657
626087.5128271873 1012628.532780813 146.5 8 16 00 4657
626098.9490174828 1012595.0522984066 149.8 8 16 08 4657
626101.7692596362 1012568.6989010114 166.2 8 16 12 4657
626108.4764017306 1012560.5594479351 171.1 8 16 16 4657
626110.897566264 1012562.8672431282 166.9 8 16 20 4657
626110.8547046799 1012562.5243068987 165.3 8 16 24 4657
626111.5345220219 1012562.9909128848 169.4 8 16 28 4657
626112.166470388 1012564.6848097782 167.5 8 16 32 4657
626111.4935646468 1012562.0508480305 171.6 8 16 36 4657
626110.2255286913 1012563.406944503 168.8 8 16 40 4657
626110.779886325 1012565.3106968866 164.0 8 16 44 4657
626120.6477378302 1012544.6636120842 149.0 8 16 48 4657
626090.3342256924 1012560.4573671577 156.7 8 16 52 4657
626086.7326966918 1012545.7939693026 161.1 8 16 56 4657
626089.7347462951 1012538.2398351758 150.2 8 17 00 4657
626073.6788229642 1012514.5133656063 165.1 8 17 08 4657
626077.33209535 1012506.0545466796 173.4 8 17 12 4657
626061.8796512105 1012510.1852310735 183.3 8 17 16 4657
626044.7832837588 1012526.7288688788 170.0 8 17 20 4657
626030.2681800869 1012522.9339320667 172.1 8 17 24 4657
626011.8254496102 1012499.8965440597 171.5 8 17 28 4657
625995.934751174 1012479.4769963712 171.5 8 17 32 4657
625994.7038380351 1012482.9784753823 172.1 8 17 36 4657
625979.6384976588 1012503.5758539373 174.9 8 17 40 4657
625975.7945314836 1012506.361294835 175.0 8 17 44 4657
625971.6022390956 1012504.6560604064 177.8 8 17 48 4657
625967.5881948082 1012515.9888287197 174.6 8 17 52 4657
625961.53691296 1012525.2251380989 173.7 8 17 56 4657
625951.8939173217 1012530.5022872454 150.0 8 18 00 4657
625962.5288182471 1012527.7605895353 172.5 9 06 08 4657
625957.9348079863 1012538.3285060319 207.7 9 06 12 4657
625950.8826333384 1012506.4478208245 176.9 9 06 17 4657
625951.5076154491 1012506.8810749217 169.8 9 06 20 4657
625964.7439520991 1012467.1032135119 167.3 9 06 24 4657
625987.7149289715 1012458.8386150098 176.1 9 06 28 4657
625984.5025661616 1012449.6280889424 181.6 9 06 32 4657
625985.7891281303 1012442.4555160397 191.5 9 06 36 4657
625988.4690392739 1012432.5339283547 187.9 9 06 40 4657
626014.4356130984 1012404.949420762 180.2 9 06 44 4657
626017.958349894 1012399.5200857889 187.5 9 06 48 4657
626038.4445874869 1012391.6678000444 188.9 9 06 52 4657
626081.2794299283 1012377.7716555583 189.4 9 06 56 4657
626099.7654931876 1012359.6511540901 185.7 9 07 00 4657
626108.2169622834 1012359.3242406343 194.8 9 07 08 4657
626123.446653037 1012328.5761320988 188.1 9 07 12 4657
626164.2443536874 1012281.5768255733 196.7 9 07 16 4657
626162.6105713181 1012259.7872561788 175.7 9 07 20 4657
626169.7723068064 1012264.1780273224 194.6 9 07 24 4657
626172.9779433997 1012268.6004138071 181.2 9 07 28 4657
626186.2440855233 1012271.2413710066 189.7 9 07 32 4657
626175.5556284285 1012266.6292444965 165.8 9 07 36 4657
626176.4764471658 1012270.7789505243 158.5 9 07 40 4657
626178.6667389594 1012269.6801317696 189.1 9 07 44 4657
626178.1168773331 1012269.8110744898 182.0 9 07 48 4657
626179.3751537405 1012271.5180278185 190.3 9 07 52 4657
626189.081502539 1012294.6382002488 198.2 9 07 56 4657
626225.3077068701 1012320.0324879193 197.6 9 08 00 4657
626314.0289858001 1012375.9819536237 181.6 9 08 08 4657
626333.8703647404 1012391.1506267987 195.6 9 08 12 4657
626354.5117794408 1012396.6681834223 190.0 9 08 16 4657
626370.4582784467 1012403.0222216535 203.8 9 08 20 4657
626397.796979774 1012417.2638932575 199.1 9 08 24 4657
626440.4402643747 1012418.6497525873 195.4 9 08 28 4657
626439.1771353331 1012411.5906719143 179.6 9 08 32 4657
626464.2116071314 1012424.7523953153 205.8 9 08 36 4657
626497.7232413819 1012429.5481786153 208.2 9 08 40 4657
626506.8151487628 1012445.4345207479 201.3 9 08 44 4657
626511.4463681484 1012450.7682627497 209.3 9 08 48 4657
626525.228459354 1012460.4218073726 203.1 9 08 52 4657
626567.7266086382 1012459.0760038684 210.0 9 08 56 4657
626602.6014628008 1012473.9722588862 192.0 9 09 00 4657
626627.7836434299 1012537.0728058208 193.2 9 09 08 4657
626634.7353184272 1012548.6949787701 191.8 9 09 12 4657
626641.1430893096 1012562.018354352 198.2 9 09 16 4657
626711.7371781415 1012612.8572751624 165.0 9 09 20 4657
626695.618338776 1012684.3402914741 155.6 9 09 24 4657
626669.1508433532 1012696.6626509919 155.0 9 09 28 4657
626686.6384461623 1012691.8420664439 140.1 9 09 32 4657
626681.2667654029 1012694.6999549526 148.4 9 09 36 4657
626665.5422672812 1012694.5611159159 167.8 9 09 40 4657
626649.808747108 1012700.6700636722 158.6 9 09 44 4657
626644.457515782 1012700.5755176113 164.8 9 09 48 4657
626634.9873213436 1012693.0478161479 160.8 9 09 52 4657
626631.6296978744 1012698.3670525182 164.9 9 09 56 4657
626633.7283201935 1012698.4401218736 169.4 9 10 00 4657
626629.8234769568 1012685.9098823565 172.5 9 10 08 4657
626643.2268534037 1012686.8263955776 165.2 9 10 12 4657
626627.1997540408 1012616.4678666577 1.5 9 10 16 4657
626606.566842258 1012683.8449590334 167.4 9 10 20 4657
626608.7355878555 1012686.0414005868 163.9 9 10 24 4657
626614.169902283 1012684.2121036808 167.4 9 10 28 4657
626612.6530874018 1012677.4618251112 159.3 9 10 32 4657
626612.7317677792 1012683.7762340825 160.4 9 10 36 4657
626592.6450440857 1012673.2399314907 166.6 9 10 40 4657
626584.3594662659 1012669.8185797854 160.0 9 10 44 4657
626584.7888739845 1012669.5545608071 164.9 9 10 48 4657
626584.3806386747 1012680.3680437965 163.4 9 10 52 4657
626585.9609299323 1012667.2914090563 162.9 9 10 56 4657
626545.3987033282 1012661.2455140769 161.8 9 11 00 4657
626510.6145021993 1012679.8886898994 160.2 9 11 08 4657
626503.8198989589 1012680.994874388 171.8 9 11 12 4657
626463.3303061756 1012683.1654365262 165.1 9 11 16 4657
626459.2738039386 1012704.2954795978 167.9 9 11 20 4657
626469.4122378732 1012736.5289863878 170.3 9 11 24 4657
626462.7455412206 1012752.6192616093 166.2 9 11 28 4657
626459.9926190189 1012764.7190360908 157.1 9 11 32 4657
626463.6585582083 1012772.9358445539 150.3 9 11 36 4657
626485.3286246359 1012769.4223496681 136.7 9 11 40 4657
626494.5291659104 1012775.3678483496 152.7 9 11 49 4657
626487.3815766945 1012773.4651107362 118.3 9 11 52 4657
626490.2681569842 1012774.5469776081 128.5 9 11 56 4657
626510.9402822364 1012777.2670527941 140.7 9 12 00 4657
626501.0098247839 1012813.9922875342 114.0 9 12 08 4657
626513.1717743244 1012811.3662088654 118.8 9 12 12 4657
626506.8147767849 1012816.5210422698 112.3 9 12 16 4657
626505.4036328743 1012817.9540754854 117.5 9 12 20 4657
626511.7665194356 1012807.5245634987 85.6 9 12 24 4657
626514.2833855085 1012827.9900385924 146.9 9 12 28 4657
626513.3886258714 1012808.8456638174 129.8 9 12 32 4657
626526.5904793249 1012797.1774185766 115.8 9 12 36 4657
626543.3103323904 1012785.0117652059 129.1 9 12 40 4657
626552.0810013538 1012777.6309325541 161.0 9 12 44 4657
626576.8363528944 1012778.3515443043 164.4 9 12 48 4657
626577.1257956482 1012773.752314787 159.7 9 12 52 4657
626590.4897845294 1012762.9360774906 164.0 9 12 56 4657
626612.7473622314 1012754.4041680754 154.0 9 13 00 4657
626613.4080620888 1012753.9750191069 151.0 9 13 08 4657
626621.8015614876 1012747.7098566886 149.9 9 13 12 4657
626626.1220027494 1012743.6985556525 141.6 9 13 16 4657
626612.1125823243 1012746.7388937352 159.7 9 13 20 4657
626625.9818126136 1012756.5918154132 162.9 9 13 24 4657
626642.051271186 1012762.2386655351 164.0 9 13 28 4657
626661.0871852161 1012761.1827768541 161.0 9 13 32 4657
626674.6865008777 1012711.2217476398 154.1 9 13 36 4657
626679.5785075143 1012690.0169822531 165.9 9 13 40 4657
626680.1693448592 1012690.8150562269 176.8 9 13 44 4657
626694.4443226131 1012683.783626268 152.7 9 13 48 4657
626692.9366618737 1012674.1803898448 149.3 9 13 52 4657
626708.4052449682 1012678.7416473959 164.4 9 13 56 4657
626724.173966547 1012651.3681606676 159.5 9 14 00 4657
626738.4665817445 1012638.8409383551 163.9 9 14 05 4657
626746.1830127588 1012638.1247796312 154.9 9 14 08 4657
626779.7252996353 1012640.1564093068 158.4 9 14 12 4657
626804.1496610584 1012651.6024243648 166.7 9 14 16 4657
626804.0927396084 1012645.3654875364 168.3 9 14 20 4657
626807.253038079 1012591.9319456489 163.1 9 14 24 4657
626805.1019575051 1012580.8006248809 132.6 9 14 28 4657
626813.7150436996 1012581.4696122811 178.8 9 14 32 4657
626808.1714645308 1012572.81547943 165.2 9 14 36 4657
626814.7130811071 1012568.3689939233 173.3 9 14 40 4657
626818.5853213936 1012570.4935036891 169.6 9 14 44 4657
626818.3999005617 1012566.6336408809 168.2 9 14 48 4657
626815.9714751058 1012559.747730821 175.6 9 14 52 4657
626811.3992218173 1012553.1756307554 169.3 9 14 56 4657
626825.7749381955 1012525.0346969756 163.4 9 15 00 4657
626840.678216814 1012510.5742975606 171.0 9 15 08 4657
626842.7685752162 1012520.0798887783 167.3 9 15 12 4657
626868.3373572065 1012483.0952311638 154.4 9 15 16 4657
626868.2548549661 1012423.171251691 160.3 9 15 20 4657
626841.7770877675 1012414.6379606546 164.2 9 15 24 4657
626837.0479223216 1012412.4443541309 166.7 9 15 28 4657
626835.8052715623 1012412.727879169 173.6 9 15 32 4657
626825.1020035914 1012385.3469399177 158.5 9 15 36 4657
626829.0774163571 1012386.144810186 165.7 9 15 40 4657
626813.9179797103 1012353.6739319105 177.0 9 15 44 4657
626816.5958012786 1012351.3271474387 177.5 9 15 48 4657
626817.6555815701 1012346.3875862091 180.5 9 15 52 4657
626816.3503643909 1012345.620394497 178.5 9 15 56 4657
626814.8128217668 1012348.7670160776 176.3 9 16 00 4657
626804.7968044354 1012370.939517098 169.0 9 16 08 4657
626810.452780309 1012395.9599543951 174.0 9 16 12 4657
626812.1529510505 1012400.3554606255 173.7 9 16 16 4657
626811.9086475727 1012397.7228557772 174.7 9 16 20 4657
626798.7260778159 1012399.8811497865 173.8 9 16 24 4657
626767.142780985 1012359.1414979025 168.4 9 16 28 4657
626748.2388005318 1012322.3902373833 169.3 9 16 32 4657
626734.2585728177 1012326.5585684997 173.0 9 16 36 4657
626731.2903275118 1012306.3680798587 170.7 9 16 40 4657
626729.2904345817 1012302.9115547272 169.3 9 16 44 4657
626713.3473030356 1012268.0607352087 159.1 9 16 48 4657
626703.3974114096 1012252.4480453881 160.5 9 16 52 4657
626696.3969754754 1012249.1745520338 184.9 9 16 56 4657
626693.770396316 1012245.8155450874 170.7 9 17 00 4657
626687.7049620606 1012242.2464801527 160.6 9 17 08 4657
626688.5652503818 1012244.6930683738 162.5 9 17 12 4657
626682.4097918251 1012245.215201336 161.1 9 17 16 4657
626682.926455006 1012238.2945050579 184.6 9 17 20 4657
626685.0410291888 1012209.3733698355 173.4 9 17 24 4657
626681.1500133094 1012223.3935983651 157.0 9 17 28 4657
626689.160636844 1012213.1905378132 145.0 9 17 32 4657
626712.2192055049 1012208.5647082184 161.9 9 17 36 4657
626698.9936748709 1012193.2400982745 158.4 9 17 40 4657
626692.3676525244 1012175.990407744 180.0 9 17 44 4657
626697.5454750196 1012165.0595015909 185.9 9 17 48 4657
626692.4694814084 1012161.3498513743 178.6 9 17 52 4657
626683.9684945215 1012170.2575482514 164.7 9 17 56 4657
626697.7437945367 1012195.7794512192 206.9 9 18 00 4657
626694.5261826772 1012167.6595366439 190.9 10 06 08 4657
626692.9227961971 1012163.9167748895 179.3 10 06 12 4657
626749.7384374682 1012159.5870666961 189.6 10 06 16 4657
626763.5752979304 1012176.1742732838 195.8 10 06 20 4657
626746.8481277324 1012176.8062803638 170.7 10 06 24 4657
626746.3050639207 1012174.8140878733 161.7 10 06 28 4657
626745.8807933709 1012176.9027039047 177.5 10 06 32 4657
626748.8207936223 1012175.0433090947 187.9 10 06 36 4657
626748.167452035 1012173.1724020371 190.6 10 06 40 4657
626751.6260819477 1012167.2121248337 192.1 10 06 44 4657
626754.4402402666 1012163.4724551609 161.4 10 06 48 4657
626784.2479500297 1012175.4001040802 164.1 10 06 52 4657
626807.4698129052 1012239.8325126761 148.1 10 06 56 4657
626828.7173813034 1012275.6624375428 165.1 10 07 00 4657
626837.169719207 1012261.3693319792 160.2 10 07 08 4657
626835.7576466096 1012280.2188206273 171.8 10 07 12 4657
626825.0993457474 1012262.7902981578 164.3 10 07 16 4657
626831.4183206611 1012272.9618691382 129.8 10 07 20 4657
626830.9249951388 1012272.5953710026 158.9 10 07 24 4657
626837.3018706868 1012257.8532881693 157.7 10 07 28 4657
626834.6627207597 1012251.5638403845 148.2 10 07 32 4657
626843.2683656318 1012251.1491099134 167.9 10 07 36 4657
626844.2756472948 1012252.3023794228 157.6 10 07 40 4657
626844.228588357 1012232.7073211524 163.6 10 07 44 4657
626843.1576779478 1012230.8350728896 156.6 10 07 48 4657
626859.5300620268 1012238.0310883222 176.0 10 07 52 4657
626843.486989943 1012227.5187065732 157.9 10 07 56 4657
626833.7654118035 1012222.9647847391 141.1 10 08 00 4657
626852.8864417088 1012205.7312651321 172.2 10 08 08 4657
626860.9722019623 1012189.2474879798 178.3 10 08 12 4657
626847.5093152954 1012182.8459265797 168.2 10 08 16 4657
626838.2695864768 1012123.965235351 181.3 10 08 20 4657
626832.652132985 1012110.9097586779 186.0 10 08 24 4657
626829.5281482253 1012087.8878946797 133.0 10 08 29 4657
626824.9010358385 1012118.9794208916 148.5 10 08 32 4657
626826.1779020235 1012111.4529663956 147.3 10 08 36 4657
626824.9637424519 1012113.1299014183 149.5 10 08 40 4657
626829.2500254142 1012109.5165935375 144.0 10 08 44 4657
626825.5435278674 1012117.3780598798 145.4 10 08 48 4657
626834.2171557955 1012109.4772262265 144.6 10 08 52 4657
626885.1938518644 1012120.0795001716 153.9 10 08 56 4657
626907.5704649395 1012112.2558038167 140.1 10 09 00 4657
626931.7664818536 1012119.6206950446 150.0 10 09 08 4657
626931.0533249949 1012112.4195992529 147.9 10 09 12 4657
626928.8999827094 1012108.8409322683 149.1 10 09 16 4657
626924.2850965096 1012108.6934304315 147.6 10 09 20 4657
626979.2257285067 1012065.4667628192 126.3 10 09 24 4657
626993.9082543921 1012065.0715625895 139.3 10 09 28 4657
626992.1641146464 1012064.1039117466 122.3 10 09 32 4657
627022.3552245876 1012045.6121928899 123.2 10 09 36 4657
627017.8094309898 1012058.1706359225 127.0 10 09 40 4657
626991.2598392431 1012054.823281666 135.2 10 09 44 4657
626951.1936927839 1012030.964075206 144.9 10 09 48 4657
626932.4048626142 1012033.6683156685 140.7 10 09 52 4657
626936.4999466725 1012034.8536089279 140.0 10 09 56 4657
626910.8346382037 1012023.0386626914 153.9 10 10 00 4657
626804.4357763315 1011945.3021007105 155.1 10 10 08 4657
626790.6603991919 1011943.798295064 152.2 10 10 12 4657
626761.8145454584 1011954.0120010227 164.7 10 10 16 4657
626734.9626787573 1011935.2267984297 170.8 10 10 20 4657
626690.3264542534 1011900.5716415171 70.0 10 10 24 4657
626709.9413179989 1011924.7520874151 164.6 10 10 28 4657
626712.56314063 1011929.6039162569 167.6 10 10 32 4657
626708.586963292 1011946.189343833 148.8 10 10 36 4657
626707.0830595789 1011959.4210352473 162.7 10 10 40 4657
626695.441033954 1011971.1827163855 164.6 10 10 44 4657
626695.5453325863 1011983.2252856836 165.4 10 10 48 4657
626723.9865161725 1011999.8481722814 157.8 10 10 52 4657
626743.7637909689 1012021.3309962696 161.6 10 10 56 4657
626778.4069395915 1012043.4917724237 161.8 10 11 00 4657
626813.4137932013 1012085.8789636658 168.6 10 11 08 4657
626827.3732390371 1012112.2198051506 154.8 10 11 12 4657
626841.7639245472 1012134.2936204884 167.1 10 11 16 4657
626860.2948615366 1012157.1658423586 182.3 10 11 20 4657
626855.3778615148 1012196.4062393075 139.4 10 11 24 4657
626877.1410762534 1012232.4921811759 156.3 10 11 28 4657
626895.8861335674 1012263.9572411738 163.0 10 11 32 4657
626849.2110474707 1012238.1638697546 89.5 10 11 36 4657
626879.1814296236 1012243.8885427298 193.7 10 11 40 4657
626862.0236287666 1012241.743539818 149.3 10 11 44 4657
626858.9006193313 1012235.563119187 155.1 10 11 48 4657
626858.8926131037 1012231.2062121157 146.1 10 11 52 4657
626882.5732259243 1012255.3445296304 147.9 10 11 56 4657
626887.1009022776 1012268.9715434198 148.9 10 12 00 4657
626849.3747352727 1012344.7531756898 165.2 10 12 08 4657
626865.5051304614 1012396.545643176 168.1 10 12 12 4657
626851.2657956376 1012395.8475471616 169.1 10 12 16 4657
626869.865391284 1012434.9532687584 178.3 10 12 20 4657
626839.6811673958 1012475.3953620275 173.3 10 12 24 4657
626851.3457199427 1012507.9766897806 192.9 10 12 28 4657
626831.7797578535 1012513.221813602 169.0 10 12 32 4657
626814.1742028772 1012541.0869952932 188.4 10 12 36 4657
626809.6523282819 1012522.2295365604 167.3 10 12 40 4657
626811.6008032813 1012524.5800961142 179.5 10 12 44 4657
626816.4845812091 1012523.1029162224 173.0 10 12 48 4657
626814.2706429483 1012517.865347697 172.3 10 12 52 4657
626815.0899391938 1012519.3829310548 172.9 10 12 56 4657
626810.9395715141 1012518.3191056912 175.1 10 13 00 4657
626810.1445651762 1012546.9237954125 168.6 10 13 08 4657
626757.7326152408 1012624.2949765343 143.4 10 13 12 4657
626749.0976771755 1012654.4447796043 142.3 10 13 16 4657
626735.1234157542 1012667.0725408756 152.4 10 13 20 4657
626729.965792882 1012668.2834568782 153.3 10 13 24 4657
626731.023434626 1012667.4353749575 149.1 10 13 28 4657
626726.8627665236 1012666.1614202557 162.0 10 13 32 4657
626710.1483648834 1012676.5909090837 150.8 10 13 36 4657
626681.4990444982 1012690.7972000994 154.4 10 13 40 4657
626649.3670734019 1012673.8860041637 151.3 10 13 44 4657
626641.8827908669 1012684.4667220769 147.7 10 13 48 4657
626639.0054343762 1012687.3657790014 148.3 10 13 52 4657
626639.2428998261 1012688.7045659181 137.8 10 13 56 4657
626638.8400327391 1012673.8191143853 150.0 10 14 00 4657
626636.0657172716 1012675.4247074877 116.7 10 14 08 4657
626631.463262324 1012661.1229430117 154.2 10 14 12 4657
626628.0358937322 1012660.7691672288 146.7 10 14 16 4657
626626.2974523539 1012661.460258569 159.4 10 14 20 4657
626622.7614954759 1012657.2689857106 154.9 10 14 24 4657
626614.159778519 1012639.3273719774 140.0 10 14 28 4657
626611.2521108518 1012641.3969788516 168.6 10 14 32 4657
626611.614428127 1012634.6306012581 169.8 10 14 36 4657
626605.8982201101 1012624.9696642963 166.3 10 14 40 4657
626589.764411193 1012622.2419607423 171.8 10 14 44 4657
626574.4272283335 1012638.4150499242 129.5 10 14 48 4657
626578.6733143688 1012643.9023845115 138.1 10 14 52 4657
626586.3425916015 1012651.0483299794 146.0 10 14 56 4657
626589.4333000053 1012663.8855823502 122.9 10 15 00 4657
626569.7451943558 1012659.2666353516 162.3 10 15 08 4657
626559.3075309275 1012655.3076139743 152.1 10 15 12 4657
626550.2930322862 1012656.4619766658 159.1 10 15 16 4657
626551.3301080801 1012655.1715019373 150.8 10 15 20 4657
626546.3793662045 1012656.9802389948 155.9 10 15 24 4657
626552.3231766075 1012664.1980620616 150.4 10 15 28 4657
626547.5822077454 1012645.0966675574 163.5 10 15 32 4657
626567.2277265261 1012659.5903194399 159.6 10 15 36 4657
626587.3070553985 1012662.1426589894 165.3 10 15 40 4657
626583.5861484011 1012653.9367196806 158.8 10 15 44 4657
626584.3695249574 1012659.8110611037 151.7 10 15 48 4657
626589.8448015264 1012662.3498283335 159.9 10 15 52 4657
626592.4692351138 1012625.1810074104 162.9 10 15 56 4657
626600.928942378 1012611.9715834295 184.1 10 16 00 4657
626598.5125497249 1012608.1819884253 177.5 10 16 08 4657
626617.1609521465 1012597.7586451723 184.1 10 16 12 4657
626613.2184857347 1012586.6768962935 176.8 10 16 16 4657
626612.7357870151 1012565.8308930706 179.9 10 16 20 4657
626622.3333317535 1012550.7563009898 194.3 10 16 24 4657
626623.7225432392 1012539.0170807961 195.1 10 16 28 4657
626628.2704394243 1012536.0459641647 192.7 10 16 32 4657
626663.3959151757 1012534.4223316702 185.7 10 16 36 4657
626694.9754023461 1012511.1577842268 188.5 10 16 40 4657
626700.8862477099 1012518.3755241295 184.9 10 16 44 4657
626697.4385962714 1012520.9188933397 188.4 10 16 48 4657
626688.4662279384 1012515.7702638643 184.7 10 16 52 4657
626698.2857968733 1012524.0178671994 182.8 10 16 56 4657
626699.1654962848 1012523.8326982553 177.1 10 17 00 4657
626701.032298273 1012503.6577001222 185.7 10 17 08 4657
626675.1103122657 1012469.1398352343 190.0 10 17 12 4657
626652.5037960337 1012456.1847857771 183.6 10 17 16 4657
626656.2424437065 1012455.4226933108 186.5 10 17 20 4657
626621.8018455085 1012421.5853116555 177.0 10 17 24 4657
626577.296117093 1012397.8228286975 187.7 10 17 28 4657
626552.901939567 1012383.7452606054 175.1 10 17 32 4657
626561.9151396569 1012386.4501512569 186.8 10 17 36 4657
626561.7029871903 1012380.6329302908 178.4 10 17 40 4657
626561.2037673707 1012378.6740554459 172.4 10 17 44 4657
626562.3502771901 1012377.5276852188 180.5 10 17 48 4657
626565.7173724291 1012389.8571436323 186.1 10 17 52 4657
626527.3756732222 1012414.3939562058 181.5 10 17 56 4657
626517.6010698042 1012453.9063241635 188.6 10 18 00 4657
626540.7934132227 1012424.588184549 210.5 11 06 08 4657
626517.4052790076 1012425.7961001118 185.9 11 06 12 4657
626532.7053138944 1012424.683947456 208.3 11 06 16 4657
626532.8868292085 1012422.9041798315 195.0 11 06 20 4657
626562.8258065266 1012445.2709134889 195.4 11 06 24 4657
626578.1495859222 1012471.074187535 207.2 11 06 28 4657
626594.5844526876 1012475.892816431 209.0 11 06 32 4657
626654.1243582619 1012502.600689663 197.0 11 06 36 4657
626713.0628101296 1012497.5037237882 170.0 11 06 40 4657
626714.5906322811 1012497.3869800792 171.0 11 06 44 4657
626716.0263285202 1012498.5858517067 180.3 11 06 48 4657
626711.9305993378 1012507.9057409877 193.3 11 06 52 4657
626713.9133928319 1012509.8361981418 193.2 11 06 56 4657
626710.3347018517 1012498.4017450081 167.5 11 07 00 4657
626733.3017499205 1012511.9993567334 187.1 11 07 08 4657
626765.5518029016 1012526.3897451316 184.4 11 07 12 4657
626777.4017510487 1012528.572996424 168.9 11 07 16 4657
626815.281350239 1012524.8020014252 186.4 11 07 20 4657
626820.636406013 1012520.2853626454 188.3 11 07 24 4657
626819.346694454 1012511.2578378834 184.4 11 07 28 4657
626821.7348286496 1012510.1486303437 177.5 11 07 32 4657
626820.6923146305 1012513.1309675048 170.3 11 07 36 4657
626810.3545242682 1012502.0065699569 177.5 11 07 40 4657
626807.1915773513 1012504.8604696246 173.8 11 07 44 4657
626807.0865236921 1012534.1972041066 172.6 11 07 48 4657
626808.6105714226 1012552.3926235451 176.8 11 07 52 4657
626809.065147535 1012554.5614637868 185.5 11 07 56 4657
626805.5029292227 1012551.7081163852 177.5 11 08 00 4657
626767.297595638 1012622.8217399654 174.0 11 08 08 4657
626719.9279906272 1012666.4267059867 147.0 11 08 12 4657
626669.2148832453 1012690.3929301966 145.1 11 08 16 4657
626663.392243475 1012693.3820732126 154.5 11 08 20 4657
626663.9449079845 1012695.8055609607 164.5 11 08 24 4657
626673.1016972368 1012698.2566117095 154.1 11 08 28 4657
626683.3397266533 1012716.5020542677 159.3 11 08 32 4657
626677.9837242982 1012704.1772617375 155.2 11 08 36 4657
626677.4791314211 1012703.8991934 155.3 11 08 40 4657
626674.768828264 1012702.6741227199 156.0 11 08 44 4657
626671.8320706954 1012693.2432384305 162.8 11 08 48 4657
626673.3223345013 1012704.847928639 173.1 11 08 52 4657
626671.7785072168 1012727.1139371919 156.4 11 08 56 4657
626658.9509775881 1012738.5400635256 166.8 11 09 00 4657
626616.7555982111 1012755.235300652 166.5 11 09 08 4657
626616.1523184403 1012765.185630801 165.3 11 09 12 4657
626621.37933668 1012766.3192348501 156.8 11 09 16 4657
626622.5853317615 1012780.9086903759 164.3 11 09 20 4657
626620.4627745047 1012788.3107992015 123.0 11 09 24 4657
626621.8089587248 1012790.0069950218 168.4 11 09 28 4657
626607.9522625566 1012793.4016798366 162.2 11 09 32 4657
626604.9367493517 1012787.9735699195 151.3 11 09 36 4657
626609.7620703212 1012797.8749351366 152.3 11 09 40 4657
626613.0988563102 1012819.6479006254 162.4 11 09 44 4657
626612.8394957046 1012821.7149289716 156.3 11 09 48 4657
626607.5632875977 1012832.5128240555 156.5 11 09 52 4657
626589.0263434283 1012856.2061977384 141.0 11 09 56 4657
626592.2947441357 1012865.018885786 138.2 11 10 00 4657
626551.4744512883 1012881.2983695373 122.0 11 10 08 4657
626543.5979346038 1012883.9823833625 128.4 11 10 12 4657
626515.2183062328 1012892.9591675821 131.1 11 10 16 4657
626497.3987864242 1012891.6525841027 133.4 11 10 20 4657
626471.287520481 1012875.1257013363 141.5 11 10 24 4657
626469.2473208158 1012863.6630200668 137.1 11 10 28 4657
626455.0731158293 1012839.2235914839 117.4 11 10 32 4657
626443.2031091608 1012839.9044010366 129.9 11 10 36 4657
626457.1879771376 1012841.088110655 135.0 11 10 40 4657
626418.7418061403 1012826.2800497966 150.0 11 10 44 4657
626408.7879188218 1012825.6842618367 143.6 11 10 48 4657
626411.625719738 1012817.9637498761 144.3 11 10 52 4657
626403.6654378762 1012815.9146736288 145.5 11 10 56 4657
626406.9406923583 1012829.4712709766 137.3 11 11 00 4657
626389.5957634951 1012813.7576037855 155.1 11 11 08 4657
626357.7842597554 1012765.3432585944 158.6 11 11 12 4657
626353.5810688973 1012722.3582068925 158.7 11 11 16 4657
626344.6545422348 1012713.1846677244 123.8 11 11 20 4657
626352.3125712071 1012713.5408800519 153.0 11 11 24 4657
626351.2711942628 1012709.3023156398 148.1 11 11 28 4657
626359.4565100682 1012689.0811654961 162.2 11 11 32 4657
626367.1053627606 1012678.5562200702 144.1 11 11 36 4657
626399.432500489 1012665.3788124389 145.7 11 11 40 4657
626426.3512860116 1012656.2313872542 166.2 11 11 44 4657
626482.8323872735 1012663.4891695136 192.5 11 11 48 4657
626466.1913299845 1012654.4457388786 185.1 11 11 52 4657
626468.8378856484 1012672.1692203608 196.5 11 11 57 4657
626473.8319605945 1012663.6815426087 187.5 11 12 00 4657
626491.9712205556 1012671.5576150125 181.0 11 12 08 4657
626466.2267918306 1012670.8449598176 159.1 11 12 12 4657
626473.0967975884 1012680.5206217546 173.2 11 12 16 4657
626496.980540937 1012678.9161943161 167.1 11 12 20 4657
626517.5086348272 1012671.716721474 159.3 11 12 24 4657
626534.6154410465 1012634.7932884423 57.1 11 12 29 4657
626524.2964722561 1012658.9884909806 156.6 11 12 32 4657
626557.9167118336 1012653.8213817249 136.7 11 12 36 4657
626575.1880561584 1012658.2003668537 223.5 11 12 40 4657
626595.6164883919 1012664.9780099127 176.0 11 12 44 4657
626622.590786395 1012679.6942022971 173.0 11 12 48 4657
626649.9501829966 1012701.1128394823 168.1 11 12 52 4657
626665.5187969678 1012708.7485450088 160.5 11 12 56 4657
626699.2945934355 1012720.1912806663 158.5 11 13 00 4657
626734.7941372488 1012653.2378367113 165.3 11 13 08 4657
626775.5360029852 1012586.1132298273 156.3 11 13 12 4657
626813.4054605202 1012568.3537426809 177.4 11 13 16 4657
626815.3893455575 1012569.9414091713 172.9 11 13 20 4657
626813.4919125382 1012572.2354041928 172.9 11 13 24 4657
626819.405675637 1012575.1073517625 172.7 11 13 28 4657
626820.04943465 1012576.5359079157 169.8 11 13 32 4657
626817.356284319 1012573.386778046 172.8 11 13 36 4657
626815.0603935842 1012569.7191928055 174.6 11 13 40 4657
626812.242320058 1012536.9893128778 172.9 11 13 44 4657
626829.9395254434 1012521.6642814805 173.0 11 13 48 4657
626839.5518291225 1012515.7237482038 175.6 11 13 52 4657
626844.5076775877 1012512.3337555573 175.4 11 13 56 4657
626844.4701362705 1012513.7601269123 175.9 11 14 00 4657
626840.689901927 1012421.2693191504 150.8 11 14 08 4657
626835.4134668824 1012414.9714119282 162.5 11 14 12 4657
626835.5404738158 1012416.4867754576 154.5 11 14 16 4657
626840.7235491005 1012386.7903494412 168.7 11 14 20 4657
626867.214585259 1012319.2441196503 163.9 11 14 24 4657
626871.1119727283 1012262.1416604845 126.5 11 14 28 4657
626863.1728723383 1012219.1887528308 153.7 11 14 32 4657
626853.1746890255 1012132.9700621677 139.1 11 14 36 4657
626924.9722412516 1012113.7270595189 140.9 11 14 40 4657
626961.2782069794 1012086.8065481755 131.8 11 14 44 4657
626963.181973999 1012085.9722433005 140.1 11 14 48 4657
626967.2663824473 1012087.0579836257 138.5 11 14 52 4657
626956.8205572516 1012089.025975953 126.8 11 14 56 4657
626983.8091798659 1012065.1386721948 133.0 11 15 00 4657
626981.6976649527 1012062.2236210654 125.0 11 15 08 4657
626975.3391051614 1012067.8096603645 134.1 11 15 12 4657
626979.76881654 1012077.7208561728 116.0 11 15 16 4657
626967.355144861 1012086.792874604 129.3 11 15 20 4657
626971.8620498881 1012089.7709025481 136.7 11 15 24 4657
626979.4345223727 1012092.8582921991 153.0 11 15 28 4657
626966.4862935797 1012114.4131645262 140.3 11 15 32 4657
626952.9566524044 1012139.0845516997 126.9 11 15 36 4657
626956.3714249242 1012157.0759435019 144.6 11 15 40 4657
626966.1805177996 1012165.1798189348 131.1 11 15 44 4657
626960.5274957119 1012159.7985095631 120.9 11 15 48 4657
626947.5035103477 1012146.752417493 133.2 11 15 52 4657
626941.7339954812 1012143.4275400549 128.7 11 15 56 4657
626932.4109816253 1012137.9459957592 133.3 11 16 00 4657
626915.932001588 1012133.1381566242 139.9 11 16 08 4657
626902.6205198624 1012134.3450196591 135.0 11 16 12 4657
626881.69992242 1012154.17139799 131.1 11 16 16 4657
626869.9626370778 1012168.2217442273 113.1 11 16 20 4657
626871.3055822569 1012164.0792728566 152.8 11 16 24 4657
626866.159631064 1012189.0429612551 145.7 11 16 28 4657
626841.5010082523 1012206.0154431871 137.2 11 16 32 4657
626840.9854786113 1012226.2832396944 158.3 11 16 36 4657
626840.4289003224 1012245.6441426642 153.5 11 16 40 4657
626834.4346170877 1012247.3057506105 149.9 11 16 44 4657
626833.2256349269 1012250.7962257107 151.1 11 16 48 4657
626829.1265705791 1012240.5764816423 170.7 11 16 52 4657
626816.591047096 1012232.8398753318 165.7 11 16 56 4657
626815.4101762155 1012203.5653706583 160.3 11 17 00 4657
626701.860516674 1012159.3231249449 189.4 11 17 08 4657
626674.3884217105 1012135.2280886812 190.0 11 17 12 4657
626668.6896703839 1012130.3885255439 195.1 11 17 16 4657
626672.3589376285 1012092.9576575096 185.7 11 17 20 4657
626675.1397028575 1012072.1884521991 190.0 11 17 24 4657
626654.7320638674 1012045.0861479411 177.9 11 17 28 4657
626646.8638000588 1012052.0054278385 171.7 11 17 32 4657
626652.4040534653 1012051.4370841164 182.7 11 17 36 4657
626642.8578300752 1012036.7103585948 184.7 11 17 40 4657
626643.5487117785 1012037.1548925245 186.9 11 17 44 4657
626613.7207808881 1012028.0692269512 202.6 11 17 48 4657
626619.0013735185 1012026.2283698397 207.4 11 17 52 4657
626626.1793221978 1012025.5546821194 197.4 11 17 56 4657
626628.2122241792 1012025.5722459719 193.2 11 18 00 4657
626620.3404753235 1012030.147210044 206.6 12 06 08 4657
626624.3850962376 1012026.4999338399 195.1 12 06 12 4657
626625.352433552 1012026.4035069173 193.4 12 06 16 4657
626621.9146573627 1012025.8506603006 196.5 12 06 20 4657
626627.3170313695 1012027.1617425116 198.9 12 06 24 4657
626601.295848323 1011996.0384904399 186.5 12 06 28 4657
626594.9187100198 1012004.0130675259 199.8 12 06 32 4657
626604.9802438513 1011991.6381111947 191.7 12 06 36 4657
626619.934959968 1011950.8264139327 156.0 12 06 40 4657
626622.5886122751 1011935.4310212856 182.7 12 06 44 4657
626640.4684487671 1011924.8946115435 167.9 12 06 48 4657
626655.0465325074 1011929.6741199527 185.1 12 06 52 4657
626650.1674174536 1011912.5074444705 172.1 12 06 56 4657
626647.9255617834 1011915.9725020656 167.1 12 07 00 4657
626651.6818128665 1011916.5927174166 180.6 12 07 08 4657
626671.7886277483 1011931.275838219 173.2 12 07 12 4657
626718.6953019355 1011922.64591165 142.6 12 07 16 4657
626733.625138884 1011906.8032789575 157.8 12 07 20 4657
626745.8328785441 1011896.8348245817 163.0 12 07 24 4657
626752.450315797 1011896.1925355234 166.9 12 07 28 4657
626754.516439896 1011909.8558686273 164.0 12 07 32 4657
626764.5887114127 1011925.0266294295 164.5 12 07 36 4657
626777.240533749 1011944.5183054055 156.4 12 07 40 4657
626790.0683966337 1012029.098356179 163.1 12 07 44 4657
626887.834072259 1012074.6392798815 160.5 12 07 48 4657
626971.1164280417 1012102.9607965964 147.3 12 07 52 4657
626980.1572761094 1012100.4906857176 145.7 12 07 56 4657
626970.7284365151 1012086.8921643926 145.6 12 08 00 4657
626968.6390062455 1012083.9440105413 149.6 12 08 08 4657
626964.7110558135 1012085.4684784799 144.6 12 08 12 4657
626963.1025439512 1012083.3291078957 128.8 12 08 16 4657
626965.4763945427 1012079.831314878 151.5 12 08 20 4657
626960.5759609394 1012083.0556065169 138.5 12 08 24 4657
626962.8714830772 1012086.8448350799 140.9 12 08 28 4657
626967.7386072166 1012090.5759677163 143.1 12 08 32 4657
626971.5480815939 1012081.454220473 142.1 12 08 36 4657
626959.6200732575 1012083.0083069137 142.2 12 08 40 4657
626964.0057825632 1012086.0854676288 142.1 12 08 44 4657
626959.3631782735 1012084.3012776318 139.2 12 08 48 4657
626949.3929550576 1012099.0097028449 131.9 12 08 52 4657
626948.5039327508 1012119.2210152652 126.1 12 08 56 4657
626949.7799294802 1012125.6719685561 161.5 12 09 00 4657
626914.3729681894 1012149.8308503175 127.6 12 09 08 4657
626900.2395889548 1012174.3123262004 139.2 12 09 12 4657
626885.6638360822 1012199.6770323912 145.7 12 09 16 4657
626853.6828540168 1012234.9492513005 146.9 12 09 20 4657
626845.8399990976 1012281.9209185618 179.1 12 09 24 4657
626838.2604550458 1012370.1511065175 171.2 12 09 28 4657
626820.5351762528 1012394.2119306031 171.0 12 09 32 4657
626822.2698014402 1012398.1431087519 172.5 12 09 36 4657
626798.9991106141 1012468.9618109114 168.2 12 09 40 4657
626820.5977104616 1012508.364633895 175.5 12 09 44 4657
626822.7916510506 1012547.2518608734 170.3 12 09 48 4657
626834.8237506421 1012574.8692886049 167.2 12 09 52 4657
626827.3818640717 1012585.9145547431 174.3 12 09 56 4657
626817.9122756483 1012574.7708203949 171.1 12 10 00 4657
626825.5345761325 1012572.572591438 173.7 12 10 08 4657
626825.8209109805 1012579.2304710869 174.8 12 10 12 4657
626813.3408643322 1012578.2173383519 163.4 12 10 16 4657
626744.841438996 1012645.2750527416 174.2 12 10 20 4657
626723.3370641298 1012662.2023893705 164.4 12 10 24 4657
626664.6462343527 1012696.4160014137 152.4 12 10 28 4657
626650.9989406022 1012706.4683044726 164.6 12 10 32 4657
626653.0752138377 1012699.7958806715 155.2 12 10 36 4657
626648.9888120999 1012726.7976564793 157.8 12 10 40 4657
626653.7206587715 1012752.1579099158 166.6 12 10 44 4657
626659.4691629325 1012779.1690743621 167.7 12 10 48 4657
626664.0529923276 1012782.1252056815 149.5 12 10 52 4657
626652.5677210367 1012775.8958936161 161.2 12 10 56 4657
626645.7260823258 1012774.5359519024 149.0 12 11 00 4657
626628.8274066707 1012767.0397462309 168.1 12 11 08 4657
626609.6967318973 1012753.0784892169 136.5 12 11 12 4657
626622.981454887 1012746.4308992184 160.7 12 11 16 4657
626608.2557900598 1012739.7931347756 150.4 12 11 20 4657
626612.8187587872 1012756.1294554349 154.4 12 11 24 4657
626606.4574298069 1012755.7662853686 151.9 12 11 28 4657
626622.2446595007 1012750.0334701916 152.8 12 11 32 4657
626642.6349695126 1012730.957255647 157.3 12 11 36 4657
626661.7911099021 1012702.6657232963 163.7 12 11 40 4657
626678.3647589678 1012691.5722817539 156.5 12 11 44 4657
626710.1469120673 1012677.0442853726 172.2 12 11 48 4657
626722.4198175592 1012650.1019189472 163.5 12 11 52 4657
626721.7326840806 1012627.917224469 162.5 12 11 56 4657
626725.1647907292 1012578.7861513887 179.4 12 12 00 4657
626743.7519478982 1012553.2020484841 178.0 12 12 08 4657
626714.6853367183 1012512.415202007 189.9 12 12 12 4657
626740.3818162204 1012510.9825866253 181.9 12 12 16 4657
626757.8625270545 1012504.9124381763 178.6 12 12 20 4657
626775.8335188134 1012503.5877817754 166.2 12 12 24 4657
626794.0105616071 1012520.2552801577 170.2 12 12 28 4657
626805.5379134902 1012554.505921411 177.3 12 12 32 4657
626801.3764569391 1012550.0472322121 179.6 12 12 36 4657
626809.3356167766 1012549.0332937409 184.0 12 12 40 4657
626805.5229593933 1012548.8883716145 174.4 12 12 44 4657
626803.3188295816 1012557.7277638173 175.6 12 12 48 4657
626812.2438844475 1012567.3437330633 175.6 12 12 52 4657
626811.3724825127 1012564.9413365477 175.2 12 12 56 4657
626843.3612091031 1012547.7269788991 169.2 12 13 00 4657
626904.1090543026 1012536.9522542664 167.2 12 13 08 4657
626921.2054130456 1012554.7774506054 161.3 12 13 12 4657
626948.8168508988 1012572.9792103663 161.7 12 13 16 4657
626978.7914795034 1012556.7647753033 169.6 12 13 20 4657
627008.1707481217 1012571.9644581598 161.0 12 13 24 4657
627018.6078590237 1012555.5656696353 154.5 12 13 28 4657
627011.1300476327 1012553.8276500816 156.6 12 13 32 4657
627013.5733136878 1012545.8183876963 159.7 12 13 36 4657
627025.2454100325 1012531.5246019345 163.2 12 13 40 4657
627018.0413532732 1012530.0860291332 158.4 12 13 44 4657
627025.6910479985 1012515.9451954964 164.5 12 13 48 4657
627031.5280382617 1012511.9277436838 162.4 12 13 52 4657
627045.7939092701 1012524.8783513969 158.6 12 13 56 4657
627046.9492175193 1012524.4176232811 158.0 12 14 00 4657
627030.9820300237 1012480.0676550178 155.7 12 14 08 4657
627005.1981774158 1012419.718306212 149.8 12 14 12 4657
627012.4691576522 1012393.4787119852 146.9 12 14 16 4657
627031.7610272829 1012364.1151110097 155.1 12 14 20 4657
627015.4221003312 1012339.6795726484 153.9 12 14 24 4657
626994.1234312968 1012319.8282818262 155.1 12 14 28 4657
626992.9322355107 1012307.5057566104 136.4 12 14 32 4657
626988.6657232121 1012267.3069986015 148.9 12 14 36 4657
626990.0481182323 1012226.9162724264 142.7 12 14 40 4657
627010.7142592269 1012200.7860261451 142.7 12 14 44 4657
627000.9215400973 1012173.8945129222 113.0 12 14 48 4657
626999.2055748975 1012143.6119835981 133.4 12 14 52 4657
627010.2182771907 1012132.7883021593 130.1 12 14 56 4657
627008.1471251474 1012110.4553911472 131.6 12 15 00 4657
626953.413447804 1012089.1919726712 137.8 12 15 08 4657
626918.2308854451 1012108.4749634918 146.5 12 15 12 4657
