627517.5594008161 1013579.8026056777 86.0 60 06 00 4669
627512.7739600515 1013584.8849462921 75.7 60 06 08 4669
627518.7332987573 1013587.193209423 46.9 60 06 12 4669
627510.2308589163 1013576.1408347824 56.4 60 06 16 4669
627527.4963950628 1013551.5369881288 72.7 60 06 20 4669
627549.4936486466 1013480.6370725664 61.6 60 06 24 4669
627547.7150437995 1013483.561728953 65.3 60 06 25 4669
627560.0470455693 1013513.325732356 81.0 60 06 28 4669
627566.1165115773 1013522.3687443006 68.0 60 06 33 4669
627575.4401327049 1013517.3231783697 58.2 60 06 37 4669
627569.6873523495 1013515.7011772963 53.0 60 06 40 4669
627548.3596339579 1013511.9499688144 74.5 60 06 44 4669
627547.2358760765 1013516.2590024554 88.0 60 06 45 4669
627550.728751637 1013547.3546164294 85.8 60 06 48 4669
627512.6306953819 1013574.799491645 71.3 60 06 52 4669
627507.4215971266 1013605.6016186542 53.3 60 06 56 4669
627521.5645303221 1013567.9501860087 84.1 60 07 00 4669
627545.2051667245 1013610.887722979 74.2 60 07 12 4669
627540.312920434 1013659.2622037533 67.1 60 07 16 4669
627512.4608864861 1013664.8561567194 80.0 60 07 20 4669
627519.4762436282 1013666.8139709635 79.1 60 07 24 4669
627516.0341479053 1013671.0491724232 78.8 60 07 28 4669
627559.1811137827 1013662.3972802038 66.0 60 07 44 4669
627591.7208626672 1013658.1675889499 102.0 60 07 48 4669
627563.9583337496 1013649.6516502101 83.3 60 07 52 4669
627580.0460381437 1013639.2979236096 113.8 60 07 56 4669
627581.3348790877 1013655.3252850226 96.5 60 08 00 4669
627581.3449145027 1013652.2179889733 119.5 60 08 08 4669
627564.9660519112 1013664.2626647652 84.7 60 08 12 4669
627569.2145381402 1013665.5259506212 84.1 60 08 16 4669
627565.6512009877 1013659.6647044093 107.3 60 08 20 4669
627569.3186579819 1013660.5059058211 94.1 60 08 24 4669
627567.858191632 1013673.804093408 71.0 60 08 28 4669
627567.4383817499 1013674.4993985008 73.5 60 08 29 4669
627576.4242569384 1013668.5459814102 101.6 60 08 32 4669
627588.3298900755 1013670.3869048015 112.6 60 08 36 4669
627575.2792821229 1013669.2168282743 91.5 60 08 41 4669
627589.4507095958 1013670.3905249077 125.7 60 08 44 4669
627582.6423609016 1013665.5803742957 101.5 60 08 49 4669
627601.4670158109 1013661.781896681 85.5 60 08 52 4669
627575.5744944972 1013673.0770614644 89.3 60 09 00 4669
627570.3240940257 1013662.212101375 124.1 60 09 08 4669
627569.6043468062 1013663.9127256823 59.2 60 09 12 4669
627641.8129750723 1013462.3465293425 -98.3 60 09 29 4669
627623.9042601436 1013485.3227194517 -28.3 60 09 32 4669
627627.264176283 1013482.7238589188 -36.6 60 09 33 4669
627556.5361560258 1013463.984183673 77.0 60 09 37 4669
627583.7553621059 1013457.0391108759 126.8 60 09 40 4669
627602.8801778787 1013435.1837004945 82.0 60 09 44 4669
627623.1495430816 1013429.8085754692 69.2 60 09 48 4669
627615.2273748375 1013439.8237503722 100.0 60 09 52 4669
627611.6654834955 1013433.5091246491 95.0 60 09 56 4669
627621.2707840478 1013433.1199397673 89.5 60 10 00 4669
627610.9632556166 1013433.1861715434 101.2 60 10 08 4669
627607.8956913517 1013430.3232725699 110.9 60 10 12 4669
627606.3383498548 1013432.784201139 113.4 60 10 16 4669
627605.6237763781 1013432.88141637 112.6 60 10 20 4669
627607.8514763712 1013433.8064338254 113.1 60 10 24 4669
627605.5163198644 1013432.1291179913 115.6 60 10 28 4669
627606.3918529047 1013436.6325955356 112.8 60 10 32 4669
627605.0825189603 1013433.7532589001 112.4 60 10 36 4669
627606.1106161503 1013435.2494237582 114.3 60 11 00 4669
627607.6895306708 1013436.3161013494 115.5 60 11 08 4669
627613.3597471887 1013432.8842844465 112.8 60 11 12 4669
627609.5061072896 1013431.8434343827 119.6 60 11 16 4669
627612.248409353 1013433.3451356951 84.7 60 11 44 4669
627600.0897078589 1013434.9867010307 85.8 60 11 48 4669
627600.3056313458 1013432.7757767657 90.5 60 11 52 4669
627593.280250954 1013440.7149271491 87.7 60 11 56 4669
627577.7400890153 1013444.8225955354 89.3 60 12 00 4669
627537.7697183096 1013507.5920629769 70.4 60 12 09 4669
627498.9269132216 1013496.8066825968 94.6 60 12 12 4669
627512.577175113 1013519.8847677967 113.0 60 12 16 4669
627502.2852077291 1013501.5172145723 94.5 60 12 20 4669
627526.8615790897 1013540.5431817827 130.2 60 13 00 4669
627504.7676826786 1013443.9235588757 104.6 60 14 16 4669
627507.4547971609 1013442.0965849598 88.5 60 14 20 4669
627594.5442125982 1013488.2688723705 367.8 60 14 25 4669
627499.3621697307 1013440.2458830758 105.8 60 14 28 4669
627513.5415471352 1013418.5514066786 122.8 60 14 32 4669
627512.5886554131 1013414.1803802467 128.1 60 14 36 4669
627517.1525923999 1013413.0450659599 139.6 60 14 40 4669
627498.0538418773 1013402.9979666597 98.0 60 14 44 4669
627467.7066708507 1013381.513685875 98.0 60 14 48 4669
627474.8385182029 1013347.3782129121 117.6 60 14 52 4669
627454.8266509766 1013344.4606704998 95.3 60 14 56 4669
627443.7352118886 1013345.6744629308 97.2 60 15 00 4669
627443.5889334008 1013343.3296735949 111.2 60 15 08 4669
627445.9148207164 1013341.0702641036 105.2 60 15 12 4669
627445.8028370747 1013379.1982382672 107.9 60 15 16 4669
627425.5393245092 1013427.0586988569 104.6 60 15 20 4669
627437.5359104828 1013513.1515405603 100.0 60 15 24 4669
627488.1300839889 1013525.9210051489 91.6 60 15 28 4669
627485.6689536631 1013525.8245986769 97.4 60 15 32 4669
627484.4942942184 1013525.4780070798 110.9 60 15 36 4669
627485.8217930554 1013526.1347187777 103.4 60 15 40 4669
627485.7275339676 1013528.1027571816 104.0 60 15 44 4669
627499.6973527729 1013499.8280313963 100.1 60 16 00 4669
627508.4982584347 1013503.5277243082 107.3 60 16 08 4669
627567.8373244582 1013503.3101238535 201.0 60 17 00 4669
627503.4916254694 1013495.4280921543 86.0 61 06 00 4669
627497.5864221455 1013503.5809748874 93.6 61 06 08 4669
627492.2873766995 1013500.9652205745 68.7 61 06 12 4669
627497.5826773451 1013549.0076568372 108.4 61 06 16 4669
627517.3646426019 1013578.8620380588 107.1 61 06 20 4669
627517.9663303716 1013579.6933381001 110.4 61 06 24 4669
627513.2923535529 1013577.4776887789 101.1 61 06 28 4669
627514.1949768773 1013576.9940455056 101.5 61 06 32 4669
627518.3171348239 1013583.3547034217 114.3 61 06 36 4669
627512.0005303565 1013579.3865714835 111.3 61 06 48 4669
627511.0285144019 1013580.9426270545 111.6 61 06 52 4669
627510.6470594831 1013579.968282587 108.5 61 06 56 4669
627510.9398259444 1013577.7797226415 109.4 61 07 00 4669
627512.5488463915 1013579.7311425217 111.0 61 07 08 4669
627510.2490883075 1013577.3019946881 107.6 61 07 12 4669
627511.8296048449 1013577.8710593471 107.8 61 07 16 4669
627512.0380284785 1013577.9823131158 106.3 61 07 20 4669
627511.8977483868 1013577.1856767491 108.3 61 07 28 4669
627511.920082198 1013577.0751677796 108.0 61 07 32 4669
627510.6125679851 1013573.6318768493 109.2 61 07 36 4669
627511.9714240374 1013574.7863056579 111.4 61 07 40 4669
627510.4958308908 1013575.7546563111 109.2 61 07 44 4669
627509.4323067744 1013575.0213887569 109.7 61 07 48 4669
627518.5962412882 1013578.5895607496 80.6 61 07 52 4669
627518.7296879689 1013567.8857451682 89.7 61 07 56 4669
627534.1124713134 1013493.3705913479 66.6 61 08 00 4669
627579.0021682337 1013469.1434483825 82.7 61 08 08 4669
627581.0429285946 1013466.7061962709 99.6 61 08 12 4669
627615.2835076125 1013436.0531167053 102.5 61 08 32 4669
627611.4626906855 1013435.0566048466 111.7 61 08 36 4669
627608.3654577443 1013427.7703667482 115.8 61 08 40 4669
627607.4465201693 1013429.9016138325 116.0 61 08 44 4669
627605.1227588838 1013434.9034320895 119.7 61 08 48 4669
627605.9925034388 1013430.9916707126 115.3 61 08 52 4669
627606.2700618821 1013433.5138157315 113.1 61 08 56 4669
627606.8083551984 1013433.5597866105 111.4 61 09 00 4669
627612.9736384272 1013436.7533753287 112.5 61 09 24 4669
627612.9243630243 1013438.400874321 113.1 61 09 28 4669
627613.6810448245 1013435.4729194978 113.4 61 09 32 4669
627612.0970103594 1013429.1867980212 114.6 61 09 36 4669
627613.1753713633 1013432.1317376003 115.1 61 09 40 4669
627609.7280556703 1013431.1696065951 72.2 61 09 44 4669
627560.574433439 1013475.9068018316 66.7 61 09 48 4669
627553.7485957495 1013524.1534000824 103.5 61 09 53 4669
627533.4956096213 1013521.0691553554 84.4 61 09 56 4669
627504.6437074493 1013530.0105040009 86.3 61 10 00 4669
627495.3252719691 1013581.1241663703 82.5 61 10 08 4669
627513.6186496476 1013653.4147541919 79.4 61 10 12 4669
627518.7861324027 1013655.9305667154 96.1 61 10 16 4669
627529.3172676081 1013668.2722358124 92.0 61 10 20 4669
627564.1855521796 1013664.3596673156 82.6 61 10 24 4669
627570.7615494933 1013666.2607816431 93.2 61 10 29 4669
627578.5670827343 1013665.1248882425 96.8 61 10 33 4669
627569.5600515079 1013647.0047355264 99.4 61 10 36 4669
627574.0311725995 1013667.7973596395 98.1 61 10 40 4669
627582.5583232924 1013671.1865639008 110.8 61 10 44 4669
627580.1318903487 1013656.9469417571 90.4 61 10 48 4669
627563.4753880163 1013646.0783219008 71.1 61 10 52 4669
627572.8978609054 1013658.0515063595 74.9 61 10 56 4669
627570.5372055001 1013657.4688612414 76.6 61 10 57 4669
627563.3324996787 1013659.7014492389 72.5 61 11 00 4669
627587.784409412 1013665.7628535384 84.0 61 11 08 4669
627569.235173491 1013648.9277971763 74.1 61 11 12 4669
627569.15446405 1013663.7122269047 93.1 61 11 16 4669
627592.498304061 1013645.4090424808 119.0 61 11 20 4669
627567.0871142222 1013660.775152153 91.2 61 11 24 4669
627590.4650508681 1013635.3174802714 100.9 61 11 28 4669
627628.7147855217 1013598.3410791366 76.3 61 11 32 4669
627628.7094058158 1013596.6049385216 78.5 61 11 33 4669
627649.1602577165 1013575.8485912449 73.7 61 11 36 4669
627622.6257911053 1013581.7453020362 54.3 61 11 40 4669
627617.751180392 1013604.2217496333 55.5 61 11 44 4669
627610.2680261396 1013600.8027373252 55.3 61 11 48 4669
627620.0813739671 1013604.030231166 64.2 61 11 52 4669
627601.1597220729 1013607.2312523787 109.7 61 11 57 4669
627593.7896771114 1013589.2048472775 72.2 61 12 01 4669
627603.3588188797 1013640.8218325705 70.1 61 12 36 4669
627584.5051868936 1013633.1750747353 72.4 61 12 40 4669
627577.8560243937 1013660.7325228124 100.5 61 12 44 4669
627586.9276691604 1013675.8561396588 79.4 61 12 48 4669
627566.6755126549 1013672.5396498276 97.8 61 12 52 4669
627562.2044214976 1013665.3484995393 78.5 61 12 56 4669
627517.7787549269 1013661.6332976334 87.0 61 13 00 4669
627512.5203508786 1013670.2637625056 82.2 61 13 08 4669
627493.5950957465 1013650.7625283201 49.6 61 13 12 4669
627498.1233827141 1013664.0689859076 72.1 61 13 16 4669
627517.4513509527 1013660.9355800722 71.6 61 13 20 4669
627499.4005909185 1013649.6643967469 66.7 61 13 24 4669
627481.1143966231 1013629.6233862622 76.7 61 13 28 4669
627475.0843474236 1013635.6084783943 83.8 61 13 32 4669
627395.6811294295 1013639.0125650713 65.4 61 13 36 4669
627360.4133258045 1013647.55733891 58.5 61 13 40 4669
627357.0178474191 1013654.3802979916 74.1 61 13 44 4669
627380.8960280365 1013623.6825918946 92.8 61 13 48 4669
627384.4095451897 1013624.5564531368 118.1 61 13 52 4669
627375.3839359877 1013588.3120706342 84.0 61 13 56 4669
627379.9701809813 1013587.066234403 113.4 61 14 00 4669
627380.7426521924 1013586.0513798258 124.7 61 14 08 4669
627386.4825059654 1013584.8645544336 115.0 61 15 00 4669
627373.9088316278 1013582.313824102 91.9 61 15 08 4669
627385.0637358329 1013578.4352230072 103.9 61 15 13 4669
627412.5905136574 1013585.1146192144 119.4 61 15 16 4669
627436.4541732306 1013538.5042804086 108.1 61 15 20 4669
627449.3148801611 1013540.646805442 110.2 61 15 24 4669
627417.9345576661 1013512.4469506704 110.1 61 15 28 4669
627403.6284395731 1013495.0948871354 114.0 61 15 32 4669
627425.8340086114 1013448.1253327787 125.5 61 15 36 4669
627411.6605063494 1013447.5709527185 114.5 61 15 40 4669
627413.4825094098 1013438.0005124734 127.6 61 15 44 4669
627413.0409074905 1013442.0463534786 127.2 61 15 45 4669
627421.5376447018 1013441.2554541848 120.2 61 15 48 4669
627406.9815817723 1013443.4754257529 107.4 61 15 52 4669
627420.7722869137 1013429.8410253228 127.5 61 15 56 4669
627395.6806931774 1013451.7215045866 64.0 61 16 00 4669
627490.4127711828 1013502.9938626789 84.7 61 16 04 4669
627493.2359872245 1013503.2573092482 94.9 61 16 08 4669
627479.5845274483 1013497.573626556 74.9 61 16 12 4669
627497.9188929541 1013506.1143537275 97.8 61 16 13 4669
627519.0716569436 1013509.5995747627 123.5 61 17 00 4669
627510.4619018921 1013576.0531156488 108.9 62 06 12 4669
627517.4934084588 1013573.0127157837 94.6 62 06 16 4669
627510.1834074411 1013577.2243759597 107.2 62 06 20 4669
627510.9453937027 1013576.0546761622 105.8 62 06 24 4669
627508.2399151155 1013576.7647209096 106.3 62 06 28 4669
627506.1070176492 1013573.7057999239 103.4 62 06 32 4669
627521.5560606007 1013577.3827229181 93.1 62 06 36 4669
627508.7553015586 1013577.0981274996 90.1 62 06 40 4669
627510.3747352322 1013582.6324070471 82.6 62 06 44 4669
627505.2576158978 1013581.5321970315 79.4 62 06 48 4669
627503.2595420758 1013577.5558885972 91.3 62 06 52 4669
627508.4159320302 1013586.9166297512 99.4 62 06 56 4669
627528.7550749116 1013631.3805775949 86.1 62 07 00 4669
627580.2740122644 1013650.3678262817 90.1 62 07 08 4669
627572.8738273078 1013665.4935355227 84.3 62 07 12 4669
627594.5586402735 1013653.9193828875 57.2 62 07 16 4669
627636.3439431349 1013590.5808175377 49.9 62 07 20 4669
627645.2133260722 1013569.6764711399 54.1 62 07 24 4669
627630.3925496355 1013541.5962805437 30.8 62 07 28 4669
627645.5381390324 1013543.9674144997 79.4 62 07 32 4669
627628.063479636 1013527.8324684397 36.8 62 07 36 4669
627617.4201095006 1013519.6150868613 55.2 62 07 40 4669
627618.1971604825 1013517.184812857 61.1 62 07 41 4669
627625.9505366923 1013532.2046541197 48.2 62 07 44 4669
627639.2267835867 1013531.5729987699 65.2 62 07 48 4669
627640.1627830771 1013527.5619288534 86.0 62 07 52 4669
627564.9741079892 1013563.0810063657 73.5 62 07 56 4669
627517.2928775765 1013567.0517495839 94.7 62 08 00 4669
627515.7809636242 1013569.0594447795 88.5 62 08 08 4669
627525.4801509703 1013577.0194139604 92.6 62 08 12 4669
627510.7189105281 1013581.5387654689 90.6 62 08 16 4669
627508.2244337866 1013574.7520957711 97.6 62 08 20 4669
627527.3722290489 1013579.790048082 99.8 62 08 24 4669
627511.2410868187 1013572.9593610174 107.9 62 08 28 4669
627508.0887869641 1013606.5658272625 81.7 62 08 32 4669
627481.079332775 1013620.058012592 82.5 62 08 36 4669
627474.8849480309 1013639.5113458439 90.2 62 08 40 4669
627508.3392682748 1013661.7355249308 76.2 62 08 44 4669
627511.859093061 1013664.0580305518 74.5 62 08 48 4669
627513.7795689435 1013664.8382971338 126.4 62 08 52 4669
627529.8700923566 1013643.393280758 11.2 62 08 56 4669
627506.9792424919 1013657.540112966 152.3 62 09 12 4669
627529.4807443338 1013665.2870747885 175.2 62 09 16 4669
627577.7283277998 1013652.637575144 123.7 62 09 20 4669
627571.0464997925 1013642.6747574278 143.7 62 09 24 4669
627571.8665613618 1013643.9380300003 146.1 62 09 25 4669
627629.1532073196 1013608.891932302 73.9 62 09 28 4669
627629.7536569322 1013606.704366421 70.9 62 09 29 4669
627652.0788634145 1013577.1960530102 91.5 62 09 32 4669
627635.2740712537 1013540.7937505192 80.5 62 09 36 4669
627627.6360010447 1013527.4993442331 96.5 62 09 40 4669
627622.882182707 1013532.9909262002 75.9 62 09 44 4669
627636.4333843235 1013525.4820139218 67.8 62 09 48 4669
627642.9864421495 1013548.0949034492 73.1 62 09 53 4669
627591.6600641416 1013629.3610193833 118.4 62 10 05 4669
627533.4816519375 1013675.1638225839 94.0 62 10 21 4669
627533.9274930684 1013680.0197708794 86.5 62 10 36 4669
627561.334160449 1013689.8393981286 110.6 62 10 41 4669
627575.9496374291 1013638.5769753719 86.7 62 10 45 4669
627561.8755403025 1013644.6908923246 60.9 62 10 49 4669
627580.4400796171 1013663.5938602394 83.0 62 10 53 4669
627560.6038604577 1013664.1822297573 69.9 62 10 56 4669
627561.8329931713 1013664.6727555573 72.4 62 10 57 4669
627587.6870252591 1013651.6855666884 121.1 62 11 00 4669
627520.6412074255 1013659.9506476084 88.5 62 11 08 4669
627491.1441931906 1013633.8799499654 81.9 62 11 12 4669
627495.5669890696 1013645.8259193886 76.1 62 11 16 4669
627473.1694749183 1013626.2803173668 98.3 62 11 20 4669
627463.7469289406 1013621.1300116305 85.8 62 11 24 4669
627409.5767095608 1013606.4691523182 83.7 62 11 28 4669
627399.964998027 1013629.3063087997 58.4 62 11 32 4669
627362.5301421642 1013652.1975077505 102.3 62 11 36 4669
627354.3440600038 1013655.4885460419 84.8 62 11 40 4669
627412.3490096333 1013608.8887596981 66.0 62 11 45 4669
627420.1770184499 1013604.1921977169 102.7 62 11 48 4669
627436.55466863 1013582.2946912203 111.9 62 11 53 4669
627435.6492978836 1013580.2239055266 109.0 62 11 56 4669
627433.0778254333 1013583.6767969414 112.0 62 12 00 4669
627499.9238610696 1013586.2699680459 85.5 62 12 08 4669
627506.9904082044 1013575.7765167367 81.9 62 12 12 4669
627509.9175241232 1013564.2744764081 83.3 62 12 16 4669
627516.4432641936 1013571.5385981455 93.8 62 12 20 4669
627508.8509223055 1013571.3039889137 90.9 62 12 24 4669
627504.2798336005 1013571.2560615464 83.4 62 12 28 4669
627500.7308747902 1013581.3627738979 84.1 62 12 32 4669
627505.9233941326 1013569.3151395073 83.3 62 12 36 4669
627515.8129297899 1013542.1330610653 87.0 62 12 40 4669
627498.5786364584 1013495.7660968694 97.0 62 12 44 4669
627513.301554852 1013489.5104909334 63.4 62 12 48 4669
627489.7364117957 1013498.0597656826 98.9 62 12 52 4669
627523.9949597181 1013506.0658135832 96.7 62 13 00 4669
627505.4706246693 1013444.0253502248 82.2 62 15 12 4669
627476.8843940549 1013401.2598910786 96.6 62 15 16 4669
627467.0193517754 1013376.5684967438 95.7 62 15 20 4669
627459.4352078231 1013366.967715525 112.8 62 15 24 4669
627493.2454111401 1013401.578072356 102.2 62 15 28 4669
627515.340839053 1013460.290500932 90.4 62 15 32 4669
627544.5917756383 1013487.742668683 66.1 62 15 36 4669
627544.2172244762 1013515.2650859343 134.9 62 15 40 4669
627517.3558557755 1013533.9218687043 79.2 62 15 44 4669
627570.2936635873 1013508.2942031847 241.9 62 15 48 4669
627530.9416589262 1013536.1109934286 156.9 62 15 49 4669
627489.5966604054 1013568.6100210336 102.1 62 15 52 4669
627513.1792256292 1013575.077714742 104.6 62 15 56 4669
627508.9643193594 1013587.2390847697 80.0 62 16 00 4669
627510.3065071937 1013593.5575950539 90.9 62 16 08 4669
627491.7796794862 1013620.8334369134 106.3 62 16 12 4669
627499.0895202047 1013654.1198092477 105.5 62 16 16 4669
627543.2636064013 1013671.0928469634 124.9 62 16 20 4669
627569.4712921195 1013657.4764771372 110.5 62 16 24 4669
627568.4913935611 1013658.0704505526 104.8 62 16 28 4669
627522.3621130879 1013657.8772789371 32.4 62 16 32 4669
627563.6585459809 1013660.8193709943 84.0 62 16 36 4669
627600.6438897281 1013678.4769827205 121.8 62 16 40 4669
627592.6436022124 1013678.6723031964 100.4 62 16 49 4669
627580.1090486438 1013681.0314281688 85.2 62 16 53 4669
627594.0234289649 1013680.1364304431 94.6 62 16 57 4669
627623.4268098642 1013680.740088427 92.5 62 17 01 4669
627601.0778187328 1013680.214507552 102.3 62 17 02 4669
627588.0421189741 1013681.2339800379 80.5 62 17 05 4669
627585.5905695274 1013678.1740238833 90.5 62 17 09 4669
627584.3003751084 1013662.5668655826 117.5 62 17 13 4669
627587.6438927416 1013682.0509938634 102.6 62 17 16 4669
627577.768715439 1013674.1567843765 106.8 62 17 20 4669
627577.5479960276 1013681.2553771312 107.0 62 17 24 4669
627577.4696463246 1013671.4908143859 108.2 62 17 28 4669
627589.4226845534 1013675.6651522858 83.5 62 17 32 4669
627599.7551036228 1013671.2752827014 91.5 62 17 37 4669
627605.2229378095 1013665.8523552234 81.4 62 17 40 4669
627625.4794210236 1013627.0153636284 86.8 62 17 44 4669
627656.574158769 1013573.495053157 85.2 62 17 52 4669
627654.8149338919 1013573.8211119776 85.6 62 17 53 4669
627644.7248203102 1013581.4296639662 57.1 62 17 56 4669
627605.9992055777 1013568.4108056189 86.9 62 18 00 4669
627543.4700298215 1013576.5245834662 80.2 62 18 08 4669
627513.539760679 1013585.9379380832 102.4 62 18 12 4669
627514.234571668 1013581.749158703 101.4 62 18 16 4669
627508.7729159086 1013585.2590661293 100.3 62 18 20 4669
627509.1474068321 1013591.7956151459 99.7 62 18 24 4669
627509.8855643666 1013587.7949634478 102.2 62 18 28 4669
627515.8277587286 1013578.3926369479 119.9 63 06 00 4669
627507.1030408089 1013574.9254061502 83.0 63 06 12 4669
627504.3169671448 1013576.7741758823 83.3 63 06 16 4669
627519.1644589253 1013582.9814628325 80.6 63 06 20 4669
627515.5084205887 1013646.6864676895 84.1 63 06 24 4669
627512.7753497487 1013659.3502350004 62.2 63 06 28 4669
627527.562203109 1013660.5037790856 75.7 63 06 32 4669
627522.0121948397 1013677.769682679 103.1 63 06 36 4669
627523.7581011484 1013661.1439267998 85.9 63 06 44 4669
627523.2933513544 1013655.3369206677 69.2 63 06 48 4669
627510.4166368075 1013647.9527723182 97.6 63 06 52 4669
627514.2890865806 1013653.3726858868 67.9 63 06 56 4669
627526.3228246153 1013663.1868979046 67.7 63 07 00 4669
627581.0735138243 1013654.5946057551 82.4 63 07 08 4669
627561.8359857906 1013653.5372507373 75.5 63 07 12 4669
627615.8395026521 1013641.5366936411 100.1 63 07 17 4669
627584.24869967 1013471.0070935817 -20.9 63 07 21 4669
627680.316234299 1013551.0021719987 93.8 63 07 24 4669
627669.3203201402 1013543.0711457041 47.1 63 07 28 4669
627691.5208083856 1013541.9707329147 59.8 63 07 32 4669
627740.7473011374 1013508.7122476783 55.7 63 07 36 4669
627741.6286920952 1013514.7970597335 72.0 63 07 40 4669
627740.4973796848 1013514.6385883644 68.8 63 07 44 4669
627738.4263980247 1013516.2242608158 70.6 63 07 48 4669
627742.5954398144 1013518.272433077 73.5 63 07 52 4669
627736.4758122797 1013514.5592373342 75.1 63 07 56 4669
627742.9831941541 1013510.4998330696 72.0 63 08 00 4669
627745.9265028345 1013453.2283226071 84.1 63 08 08 4669
627746.6571776887 1013451.5498517863 70.1 63 08 12 4669
627757.7477145463 1013440.4170161063 84.1 63 08 16 4669
627728.421321509 1013375.1456891829 86.4 63 08 20 4669
627682.4077770215 1013339.0249466257 104.3 63 08 24 4669
627668.6846429479 1013379.3205920777 92.8 63 08 28 4669
627669.1535645108 1013390.6345537044 100.8 63 08 32 4669
627675.101345172 1013382.9241523556 110.1 63 08 36 4669
627664.056127261 1013386.8362106449 100.3 63 08 40 4669
627667.9978419333 1013391.2279575242 105.6 63 08 44 4669
627667.1239172 1013379.4261305808 93.9 63 08 48 4669
627661.3499270277 1013377.5607714319 97.1 63 08 52 4669
627658.0252878892 1013379.4409672054 105.0 63 08 56 4669
627659.0183083198 1013398.5968213342 160.4 63 09 01 4669
627663.3097712364 1013393.3691422037 135.5 63 09 04 4669
627664.8171567561 1013385.9650787492 101.2 63 09 08 4669
627637.7452160988 1013405.1297897081 108.9 63 09 12 4669
627613.827633676 1013437.718188935 96.8 63 09 16 4669
627606.4125194584 1013433.6359149934 116.7 63 09 20 4669
627610.1322259231 1013435.3177024865 112.4 63 09 24 4669
627608.7492360652 1013438.2325764908 112.7 63 09 28 4669
627608.3882229187 1013437.7337956891 124.0 63 09 32 4669
627607.3709604866 1013439.6877954743 111.3 63 09 36 4669
627612.4862761257 1013441.3519743393 111.7 63 09 40 4669
627614.7483455613 1013438.4399396607 114.4 63 09 44 4669
627617.5160526682 1013438.8801450654 111.9 63 09 48 4669
627610.1672137694 1013427.886766788 112.7 63 09 52 4669
627576.0420890063 1013470.427689019 70.3 63 09 56 4669
627560.735754445 1013480.39691397 88.6 63 10 00 4669
627527.770891584 1013480.1135694467 91.0 63 10 08 4669
627528.8597330729 1013438.9588155326 95.9 63 10 12 4669
627499.9112442057 1013426.7346514825 106.2 63 10 16 4669
627490.1400508947 1013420.643281773 106.4 63 10 20 4669
627493.6619909658 1013459.7782178594 97.2 63 10 24 4669
627495.0341612039 1013456.8080155458 97.4 63 10 25 4669
627500.4521127853 1013524.7333188606 89.6 63 10 28 4669
627498.9258225277 1013524.3855920542 109.3 63 10 32 4669
627515.7501441195 1013537.753848676 94.1 63 10 36 4669
627512.2074577247 1013549.3202507334 80.1 63 10 40 4669
627483.1514013145 1013621.5354271008 87.4 63 10 44 4669
627516.4053627086 1013671.791263832 88.1 63 10 48 4669
627579.3109365267 1013655.9601187635 92.6 63 10 52 4669
627573.6961237366 1013659.2594180898 82.9 63 10 56 4669
627577.69513998 1013666.3163479294 92.9 63 11 00 4669
627568.700418292 1013671.606249762 84.8 63 11 08 4669
627602.2608626091 1013688.1691096554 96.9 63 11 12 4669
627617.832347428 1013704.9503331801 92.1 63 11 16 4669
627623.827610384 1013764.1527093697 110.6 63 11 20 4669
627611.108747885 1013772.5489539908 95.1 63 11 24 4669
627602.5472778245 1013766.1849978768 110.1 63 11 28 4669
627613.1976869476 1013772.2018433966 92.8 63 11 32 4669
627661.1422557095 1013727.4829550731 110.0 63 11 36 4669
627733.848457589 1013698.4139976826 89.8 63 11 40 4669
627764.5859745999 1013711.208119831 95.1 63 11 44 4669
627764.7932720986 1013735.4481792038 85.6 63 11 48 4669
627810.6513365228 1013741.3356982179 79.4 63 11 52 4669
627821.5659567148 1013753.9883284589 83.6 63 11 56 4669
627843.3646028393 1013751.3938691206 93.8 63 12 00 4669
627827.004578515 1013757.5998166783 82.0 63 12 08 4669
627781.7674944367 1013746.5833189108 118.0 63 12 12 4669
627782.0434271801 1013749.6030772566 112.9 63 12 16 4669
627781.0097169791 1013743.0533284806 119.7 63 12 20 4669
627780.7321105704 1013764.3282458218 94.8 63 12 24 4669
627797.3804024833 1013787.8916635085 93.1 63 12 28 4669
627843.9263447362 1013818.8833847615 78.7 63 12 32 4669
627846.4255421577 1013820.79347071 79.5 63 12 36 4669
627842.7707381371 1013826.2332932468 77.5 63 12 40 4669
627837.9476230502 1013839.5537730935 80.3 63 12 44 4669
627837.5967807942 1013829.124831674 81.0 63 12 48 4669
627824.9460750145 1013853.7987815104 64.2 63 12 52 4669
627840.5460725893 1013837.958756434 70.8 63 12 56 4669
627849.7222740459 1013827.5274783137 66.3 63 13 00 4669
627871.4355894347 1013766.4242523214 68.5 63 13 08 4669
627889.8738159708 1013769.9783133302 65.2 63 13 12 4669
627876.5110175856 1013766.8166595855 59.6 63 13 16 4669
627896.0042385093 1013770.3409647119 78.1 63 13 52 4669
627883.2272685682 1013759.3299404257 69.7 63 13 56 4669
627860.4934629994 1013752.0906826209 41.8 63 14 00 4669
627901.4744867565 1013750.6088744255 91.1 63 14 12 4669
627892.9724090453 1013729.305522234 70.7 63 14 16 4669
627891.9241738156 1013734.0350036604 97.3 63 14 20 4669
627866.3078098783 1013721.1025382649 62.8 63 14 24 4669
627865.6271705192 1013727.6909739169 78.5 63 14 29 4669
627873.998559978 1013721.4812942498 59.7 63 14 32 4669
627877.7348759283 1013718.0211403469 70.2 63 14 36 4669
627863.6424197784 1013719.6121223955 85.2 63 14 40 4669
627678.1300945326 1013584.8218696087 51.5 63 14 44 4669
627636.4162374436 1013571.6053344132 44.1 63 14 48 4669
627617.0303691853 1013585.8408434057 50.5 63 14 52 4669
627584.3019134551 1013573.6265054673 78.1 63 14 56 4669
627519.4032574067 1013573.6823666927 86.4 63 15 00 4669
627515.9698420628 1013565.0127877838 92.1 63 15 08 4669
627513.1874703135 1013572.5233189809 80.4 63 15 12 4669
627530.1229985496 1013609.3019551523 85.1 63 15 16 4669
627531.6614452987 1013612.6907021316 83.5 63 15 20 4669
627579.7811398967 1013649.8686196341 112.8 63 15 24 4669
627589.8479367159 1013649.4698661781 126.7 63 15 28 4669
627585.9389958213 1013655.3512130134 99.6 63 15 32 4669
627581.6849261641 1013659.2188697155 95.2 63 15 36 4669
627601.1391421189 1013644.220560341 158.2 63 15 40 4669
627577.2281701774 1013654.3941990823 95.7 63 15 44 4669
627578.3242386604 1013651.854373975 84.8 63 15 48 4669
627556.8284302938 1013655.9428065295 109.1 63 15 52 4669
627539.2571706468 1013628.8932337905 168.9 63 15 56 4669
627512.3171391572 1013668.5380420124 89.6 63 16 00 4669
627453.8634635619 1013707.749425516 50.1 63 16 08 4669
627453.9623609333 1013700.9379524762 73.7 63 16 12 4669
627410.4835953868 1013693.2450055992 61.9 63 16 16 4669
627370.9987145715 1013666.9431443753 57.6 63 16 20 4669
627399.7127863435 1013646.180158787 65.3 63 16 24 4669
627406.350178637 1013608.6040182338 77.3 63 16 28 4669
627400.9965532686 1013602.4716226363 91.8 63 16 32 4669
627397.2359752893 1013603.2446205379 92.0 63 16 36 4669
627397.1420003964 1013601.7182994774 95.3 63 16 40 4669
627392.5175735218 1013597.7667028229 103.6 63 16 44 4669
627400.4606823717 1013598.2678158928 105.8 63 16 48 4669
627400.0187861463 1013595.5903302518 99.3 63 17 00 4669
627456.023839932 1013576.2755414646 92.1 63 17 08 4669
627453.5331983889 1013537.6415514655 106.3 63 17 12 4669
627430.1637457691 1013502.5672745036 129.8 63 17 16 4669
627429.4874503064 1013497.6110635038 122.5 63 17 20 4669
627410.0163520727 1013456.5116547166 126.2 63 17 24 4669
627419.3442728802 1013446.7221410491 123.2 63 17 28 4669
627420.7062541229 1013433.2798819126 125.8 63 17 32 4669
627415.1372364628 1013436.0043321563 133.8 63 17 36 4669
627415.9188587349 1013421.9298898318 124.5 63 17 40 4669
627407.7035689615 1013420.631717299 119.4 63 17 44 4669
627407.4651152609 1013426.4253932713 128.5 63 17 48 4669
627409.8998885765 1013427.8818554865 121.5 63 17 52 4669
627404.3317850316 1013423.5070094885 114.3 63 17 56 4669
627410.175182368 1013414.0711750868 118.4 63 18 00 4669
627405.2648241095 1013413.5909016015 119.1 63 18 08 4669
627413.5427479298 1013405.6889353453 125.2 63 18 12 4669
627420.8241917306 1013403.5229115682 121.2 63 18 16 4669
627418.7380592251 1013406.4023487595 112.6 63 18 20 4669
627415.8800762765 1013399.8799111575 102.6 64 06 00 4669
627410.3383150968 1013404.3737466212 100.7 64 06 20 4669
627514.6069614093 1013425.5103928063 81.8 64 06 24 4669
627593.8414852896 1013440.4624030382 116.7 64 06 28 4669
627613.5113959846 1013436.9652162003 114.5 64 06 32 4669
627613.5907324378 1013439.6194184384 92.8 64 06 36 4669
627613.4749420385 1013434.6428957159 94.8 64 06 40 4669
627612.8830262283 1013423.9809676235 114.5 64 06 44 4669
627612.3871283561 1013431.2224269293 112.2 64 06 48 4669
627607.7587939412 1013431.8820236903 112.6 64 06 52 4669
627608.722377533 1013436.3415532527 100.9 64 06 56 4669
627618.3385346194 1013442.7973719843 108.4 64 07 00 4669
627578.5469888309 1013446.7603696586 98.1 64 07 08 4669
627544.9008524554 1013521.3492513384 87.9 64 07 12 4669
627509.3219624232 1013571.7588915313 91.7 64 07 16 4669
627506.9840895223 1013608.3757910295 78.8 64 07 20 4669
627519.8927389708 1013663.7411619159 79.9 64 07 24 4669
627525.2003921784 1013667.0867859861 88.3 64 07 28 4669
627569.7506299169 1013649.2390887698 91.0 64 07 32 4669
627574.2322925555 1013653.1570739229 87.1 64 07 36 4669
627580.8395068826 1013655.600137864 91.3 64 07 40 4669
627574.9198391124 1013702.2572951893 112.2 64 07 44 4669
627598.2371735936 1013760.188636885 95.0 64 07 48 4669
627600.2798166198 1013774.1726861754 103.2 64 07 52 4669
627614.6497787753 1013768.303021953 110.1 64 07 56 4669
627618.1277582534 1013766.5670774778 117.7 64 08 00 4669
627610.187538702 1013765.181276476 120.5 64 08 08 4669
627610.738745025 1013764.6301517697 119.3 64 08 12 4669
627606.7821639887 1013758.0488520223 119.9 64 08 16 4669
627601.7071294114 1013757.5348419473 121.7 64 08 20 4669
627601.1575165119 1013760.9942547736 117.5 64 08 24 4669
627607.5420134054 1013764.3433713643 120.3 64 08 28 4669
627608.155920054 1013768.1935769643 115.9 64 08 32 4669
627614.6102706448 1013763.5257906928 119.4 64 08 36 4669
627605.2557048057 1013757.7564097998 104.7 64 08 40 4669
627617.3566716897 1013712.7337058468 108.2 64 08 44 4669
627624.0125576172 1013621.8796617899 86.7 64 08 49 4669
627635.584446294 1013560.3676075023 95.3 64 08 52 4669
627634.8824161921 1013539.5760931649 43.5 64 08 56 4669
627602.7178128179 1013553.5049345924 64.3 64 09 00 4669
627468.7009448658 1013556.9868768913 119.6 64 09 08 4669
627445.9425990208 1013536.8651137793 76.2 64 09 12 4669
627367.7673189172 1013506.9883614623 94.8 64 09 16 4669
627283.9138387967 1013472.7697705417 94.7 64 09 20 4669
627227.0712486026 1013424.5724454102 85.1 64 09 24 4669
627207.7601780221 1013395.1289150931 82.5 64 09 28 4669
627212.7368482407 1013398.9046888801 89.8 64 09 32 4669
627240.0053665983 1013383.4558656032 66.9 64 09 36 4669
627225.3669869936 1013373.6997243743 82.8 64 09 40 4669
627307.8751262269 1013320.7870753331 88.5 64 09 56 4669
627329.7156030706 1013291.6198337201 97.3 64 10 00 4669
627321.39960703 1013290.8742633956 107.7 64 10 08 4669
627316.347613989 1013286.6006195225 111.4 64 10 12 4669
627331.7051101814 1013294.8552085938 98.2 64 10 16 4669
627330.316337578 1013292.7496952787 94.6 64 10 20 4669
627331.3945167244 1013288.9381256965 106.2 64 10 24 4669
627345.2950186922 1013231.005310851 94.6 64 10 29 4669
627342.3889397233 1013256.4516872736 121.8 64 10 32 4669
627344.3660424725 1013253.3065002984 104.0 64 10 37 4669
627378.3554973663 1013239.1842671904 119.0 64 10 41 4669
627397.1972405978 1013226.7272329049 139.2 64 10 44 4669
627396.3823250447 1013234.08930016 150.7 64 10 49 4669
627423.4876106692 1013190.9395137675 114.4 64 11 01 4669
627465.6514925037 1013201.0498861053 131.6 64 11 05 4669
627475.2965045647 1013229.2459808592 121.2 64 11 08 4669
627503.5136281555 1013236.6021811132 112.6 64 11 12 4669
627546.3818842019 1013287.2097015628 132.3 64 11 16 4669
627579.1499094894 1013317.8800817668 142.2 64 11 20 4669
627616.3690298093 1013389.1481273322 95.6 64 11 24 4669
627611.9467296653 1013421.2797652943 89.0 64 11 28 4669
627610.7446530024 1013436.2264452908 99.0 64 11 32 4669
627609.5784554564 1013433.2591058848 114.7 64 11 36 4669
627608.3609604008 1013439.3703076484 117.6 64 11 40 4669
627608.1362621665 1013440.8956008848 112.1 64 11 44 4669
627613.2878404085 1013438.1366536571 115.6 64 11 48 4669
627610.9478630171 1013437.9521664777 116.2 64 11 52 4669
627613.0884404017 1013438.6336245219 115.5 64 11 56 4669
627614.2392195349 1013432.7654857178 118.9 64 12 00 4669
627613.2955776928 1013428.9363325383 115.8 64 12 08 4669
627610.9192414911 1013429.8022482813 114.0 64 12 12 4669
627608.8873700014 1013429.4860590678 117.4 64 12 16 4669
627606.065362551 1013428.8466330565 118.9 64 12 20 4669
627608.3872094236 1013431.242682942 115.7 64 12 24 4669
627608.1507837533 1013429.5942612768 123.0 64 12 28 4669
627607.6070373284 1013427.8342660238 113.3 64 12 32 4669
627607.1124974652 1013434.655521558 116.9 64 13 00 4669
627605.58921467 1013429.9730223438 108.0 64 13 24 4669
627606.6437063637 1013433.503964327 112.6 64 13 28 4669
627609.5460613884 1013433.0820715335 113.0 64 13 32 4669
627608.5008577455 1013436.8826851283 116.5 64 13 36 4669
627612.0954875938 1013436.4630283358 114.4 64 13 40 4669
627609.8386324474 1013437.7605961948 102.6 64 13 44 4669
627567.9799352107 1013469.3511377879 75.0 64 13 48 4669
627545.1206984592 1013480.4792003969 76.4 64 13 52 4669
627547.9896582668 1013497.2083186267 79.6 64 13 56 4669
627496.700963719 1013495.3398296501 95.0 64 14 00 4669
627499.8379817617 1013459.6543915637 120.9 64 15 24 4669
627482.7364802689 1013450.4430998702 100.0 64 15 28 4669
627479.9622096267 1013428.1963025872 110.3 64 15 32 4669
627459.3772290532 1013415.601063546 95.5 64 15 36 4669
627473.8830677794 1013388.0800076243 129.3 64 15 40 4669
627472.4721550426 1013399.6532898557 127.7 64 15 44 4669
627468.3496012168 1013372.9678464292 134.3 64 15 48 4669
627439.7164823059 1013371.9687260013 109.4 64 15 52 4669
627443.9328862701 1013366.1547050013 98.4 64 15 56 4669
627442.7923997884 1013365.4322500785 103.3 64 16 00 4669
627458.1352415866 1013361.1801348215 103.9 64 16 08 4669
627459.1387270091 1013360.0886195059 106.3 64 16 12 4669
627462.8994030831 1013362.6994041606 105.3 64 16 16 4669
627459.2693737639 1013357.0591208701 101.1 64 16 28 4669
627463.6187167007 1013354.3196827376 104.0 64 16 32 4669
627519.6731462886 1013353.8702242477 111.7 64 16 36 4669
627526.1119670895 1013374.4590783867 105.4 64 16 40 4669
627535.9822118783 1013377.1006469587 107.4 64 16 44 4669
627542.0814721177 1013404.1574012891 111.3 64 16 48 4669
627528.5214108092 1013407.5969371882 77.8 64 16 52 4669
627531.1186935846 1013406.3668122083 86.1 64 16 53 4669
627539.3317560429 1013394.738078027 95.8 64 16 56 4669
627498.3610952345 1013392.9139672415 109.9 64 17 00 4669
627525.0055661481 1013397.2241456185 90.9 64 17 08 4669
627560.9995150795 1013429.3314294852 97.0 64 17 12 4669
627613.9156487588 1013437.685298877 79.1 64 17 16 4669
627610.218859422 1013432.3101768536 120.8 64 17 20 4669
627610.3199588531 1013435.030797985 125.4 64 17 24 4669
627612.5560514536 1013433.3571873954 123.6 64 17 28 4669
627614.4013683491 1013433.5953675432 122.2 64 17 32 4669
627614.6606992855 1013434.9563524467 117.1 64 17 36 4669
627616.157503664 1013441.0320883276 117.2 64 17 40 4669
627618.5567449791 1013439.8787361252 116.0 64 17 44 4669
627619.7591572872 1013441.8399050066 120.2 64 17 48 4669
627618.7332871896 1013436.2522467398 115.3 64 17 52 4669
627618.144253937 1013438.3071524233 119.4 64 17 56 4669
627613.7156415947 1013438.3702556207 118.8 64 18 00 4669
627608.3694846872 1013440.1333446415 113.8 64 18 08 4669
627610.7108547782 1013439.8865699598 118.4 64 18 12 4669
627610.2387782064 1013439.7523480076 117.7 64 18 16 4669
627605.5997886551 1013436.9064902258 116.8 64 18 20 4669
627606.4903207863 1013436.7656108405 116.7 64 18 24 4669
627605.7103412069 1013440.1026404889 116.0 64 18 28 4669
627590.728402174 1013448.2925484795 92.9 65 06 00 4669
627557.2418532845 1013493.8654658446 69.0 65 06 33 4669
627552.909116847 1013525.4997788362 84.2 65 06 36 4669
627536.4085349188 1013530.9866213923 80.5 65 06 40 4669
627512.0977801504 1013583.3014547211 87.3 65 06 44 4669
627488.8693909437 1013613.5035793416 74.0 65 06 48 4669
627508.6583252603 1013661.6149156227 92.9 65 06 52 4669
627525.532173598 1013673.236164271 109.7 65 06 56 4669
627537.4215358186 1013659.695192983 41.7 65 07 00 4669
627586.635886399 1013660.7277045877 106.1 65 07 08 4669
627576.561853916 1013659.9653337573 90.1 65 07 12 4669
627537.9579542829 1013667.12797267 91.7 65 07 16 4669
627523.8902542037 1013657.6499918022 106.2 65 07 20 4669
627529.1653065406 1013657.4790332044 90.6 65 07 24 4669
627524.6409106292 1013666.797469075 93.8 65 07 28 4669
627580.9832248039 1013651.9293100353 96.0 65 07 32 4669
627643.5364636634 1013588.724177163 109.2 65 07 37 4669
627659.342155336 1013556.839424592 98.5 65 07 40 4669
627629.5903842287 1013534.7929518233 42.7 65 07 44 4669
627620.1027736192 1013515.7644721986 23.1 65 07 48 4669
627641.2074147884 1013483.1227608555 62.9 65 07 52 4669
627612.5202531005 1013437.6365596841 55.1 65 07 56 4669
627628.304193144 1013436.3052769069 116.0 65 08 00 4669
627611.4378792545 1013429.129378703 114.4 65 08 08 4669
627616.745774697 1013432.4086637554 115.0 65 08 12 4669
627610.4384150149 1013432.3772345894 116.0 65 08 16 4669
627608.3928052774 1013432.9124753403 114.6 65 08 20 4669
627606.2388214614 1013429.5770283771 113.6 65 08 24 4669
627605.3691731686 1013436.8615130122 115.5 65 08 28 4669
627608.8835621785 1013437.4700008505 114.1 65 08 32 4669
627609.2553740235 1013441.4300043979 109.0 65 08 36 4669
627612.8338248123 1013446.0196185502 106.6 65 08 40 4669
627614.3814875714 1013446.555406353 104.3 65 08 44 4669
627616.0904536896 1013444.7805705348 105.2 65 08 48 4669
627617.0446308492 1013445.3476159116 108.5 65 08 52 4669
627616.1140378652 1013444.2830318268 111.6 65 08 56 4669
627614.7574294573 1013442.4319461304 106.4 65 09 00 4669
627601.94333594 1013388.4159372294 105.1 65 09 08 4669
627542.5466690542 1013375.7838040915 89.1 65 09 12 4669
627533.3123528843 1013353.1512324088 101.2 65 09 16 4669
627531.1057777331 1013342.2739937868 103.8 65 09 20 4669
627521.0647197908 1013314.2424687 122.4 65 09 24 4669
627518.0656811041 1013300.3548701529 109.0 65 09 28 4669
627515.2501591414 1013294.2970019896 94.1 65 09 32 4669
627519.3895552723 1013288.51591261 90.7 65 09 36 4669
627525.7077800187 1013230.7024163569 109.2 65 09 40 4669
627516.9651150702 1013188.498598937 107.5 65 09 44 4669
627524.4681001159 1013138.1199717646 116.9 65 09 48 4669
627509.6201859786 1013145.6136936708 95.3 65 09 52 4669
627526.4648834813 1013122.0700482144 105.3 65 09 56 4669
627512.2145869259 1013107.8144097199 116.4 65 10 00 4669
627481.2818038502 1013073.6225018195 107.6 65 10 08 4669
627483.4716396544 1013076.0734050423 106.7 65 10 12 4669
627464.8304709243 1013080.823560337 95.7 65 10 16 4669
627480.9909885032 1013064.9851865927 105.2 65 10 20 4669
627475.5851856658 1013075.0085082607 102.8 65 10 24 4669
627469.9207234049 1013035.7560978268 122.7 65 10 28 4669
627416.1760709537 1013014.9484054835 124.5 65 10 32 4669
627387.1350904957 1012997.2171399688 102.0 65 10 36 4669
627366.9551756283 1012985.0103230122 140.9 65 10 40 4669
627327.6974677301 1012962.9888234865 159.8 65 10 44 4669
627305.7562100771 1012893.7387183666 152.2 65 10 48 4669
627319.941916523 1012825.7328876524 144.3 65 10 52 4669
627316.6799554536 1012801.3171692683 146.1 65 10 56 4669
627327.8302748848 1012778.4517631801 146.3 65 11 01 4669
627369.9330354347 1012869.0757735413 147.9 65 11 08 4669
627413.6386090722 1012908.9704683926 128.3 65 11 12 4669
627432.8941389853 1012928.4173806392 136.7 65 11 16 4669
627418.695382086 1012932.2308895172 131.4 65 11 20 4669
627385.2538526851 1012967.1994006605 99.6 65 11 24 4669
627390.9478140748 1012987.100209358 143.2 65 11 28 4669
627387.3949035383 1012981.382781307 128.1 65 11 33 4669
627381.3725880461 1012984.9461981573 167.1 65 11 36 4669
627384.4894202763 1012982.7667386548 128.3 65 11 40 4669
627394.0072679389 1012982.2666221454 112.6 65 11 44 4669
627389.7738730502 1012983.1155109684 111.8 65 11 48 4669
627389.478178351 1012982.8049313233 114.7 65 11 49 4669
627377.0770392262 1012984.622729667 148.4 65 11 52 4669
627387.2163775107 1012982.222621422 94.0 65 11 57 4669
627397.6305995388 1012986.590957523 126.7 65 12 12 4669
627419.5070667369 1013034.9632439116 119.0 65 12 16 4669
627438.977012207 1013052.6415637834 118.8 65 12 21 4669
627462.252868452 1013041.868617077 146.9 65 12 24 4669
627474.1726030026 1013039.3968667142 145.0 65 12 28 4669
627465.7197680207 1013040.1768491893 78.0 65 12 32 4669
627477.4758962353 1013044.1403870659 87.8 65 12 36 4669
627477.0885613797 1013027.9500777595 82.4 65 12 40 4669
627465.9595745034 1013030.5570748122 81.8 65 12 44 4669
627466.2787300714 1013044.03792888 125.2 65 12 48 4669
627464.7195560238 1013040.2510305064 111.1 65 12 52 4669
627457.6603416809 1013038.2267511515 114.3 65 13 00 4669
627466.5496011564 1013096.3436201263 110.4 65 13 20 4669
627475.5960398254 1013177.2628091658 98.9 65 13 24 4669
627499.1317965641 1013205.1277411246 119.5 65 13 28 4669
627504.9127407452 1013228.6890931505 105.2 65 13 32 4669
627510.013661915 1013292.7209126068 102.2 65 13 36 4669
627474.5771482765 1013346.6475349605 114.7 65 13 40 4669
627456.6131341188 1013379.9739991731 77.8 65 13 44 4669
627472.2050165348 1013444.9906511286 115.6 65 13 48 4669
627466.1750208818 1013471.3890061518 119.2 65 13 52 4669
627489.7456480091 1013566.7085078246 87.4 65 13 56 4669
627492.2758624052 1013630.5219382511 124.1 65 14 00 4669
627520.8603925474 1013666.9400783367 96.8 65 14 08 4669
627519.0614913737 1013672.7508351621 98.4 65 14 12 4669
627566.7031619907 1013660.5748663186 81.1 65 14 16 4669
627576.6399404984 1013663.0065657153 93.5 65 14 20 4669
627576.7905393511 1013725.2531446153 102.7 65 14 24 4669
627604.5472950778 1013769.5531244453 89.1 65 14 28 4669
627603.0108412271 1013762.1502853599 94.8 65 14 32 4669
627607.3538530553 1013764.7629716627 92.8 65 14 36 4669
627645.4991339571 1013749.880367036 106.0 65 14 40 4669
627716.4578834991 1013703.8868235137 84.1 65 14 44 4669
627756.680185397 1013712.7638601621 86.0 65 14 48 4669
627762.6594291725 1013729.2929651386 84.1 65 14 52 4669
627763.6313615207 1013734.5597717466 63.0 65 14 56 4669
627766.9984152443 1013726.3544828382 83.4 65 15 00 4669
627767.8879556939 1013733.31291478 83.4 65 15 08 4669
627771.8364234807 1013722.013234425 107.6 65 15 12 4669
627759.0215397126 1013726.1075196293 86.9 65 15 16 4669
627765.3992646582 1013728.151783128 101.1 65 15 20 4669
627773.3671974759 1013731.1632476818 104.3 65 15 24 4669
627757.5045113461 1013733.0913418083 84.8 65 15 28 4669
627770.0392601622 1013737.4666668243 95.5 65 15 32 4669
627776.2916321822 1013737.4979498365 83.8 65 15 36 4669
627785.6511258465 1013724.7561032024 136.2 65 16 01 4669
627769.4153737676 1013729.9119558119 115.7 65 16 08 4669
627750.5124546447 1013723.9347248109 124.3 65 16 12 4669
627766.2479524589 1013713.7679201029 128.3 65 16 16 4669
627752.1651124719 1013681.8086523968 127.7 65 16 20 4669
627751.7748026452 1013673.3811067642 86.7 65 16 24 4669
627741.8964740419 1013680.0614367898 79.8 65 16 28 4669
627739.6511513506 1013681.1931617431 72.4 65 16 29 4669
627736.5372097242 1013672.2923685082 56.4 65 16 32 4669
627740.6447878327 1013666.1573395657 88.1 65 16 36 4669
627746.8513517019 1013676.9590717955 58.3 65 16 37 4669
627739.4030912208 1013676.3489055649 44.3 65 16 40 4669
627741.4187446025 1013668.0839541904 81.1 65 16 56 4669
627746.0097941643 1013678.9468108952 73.6 65 17 00 4669
627740.4426665765 1013701.4763029394 83.0 65 17 08 4669
627740.8353323896 1013719.3696018999 82.4 65 17 12 4669
627747.6005613309 1013737.504672413 94.4 65 17 16 4669
627756.1812878515 1013734.5135589187 93.6 65 17 20 4669
627751.7471183572 1013732.9068491076 94.8 65 17 24 4669
627749.5099521109 1013731.5173493723 100.0 65 17 28 4669
627748.682163932 1013729.2477586605 104.1 65 17 32 4669
627748.3017721106 1013734.7424114998 106.1 65 17 36 4669
627756.0199493954 1013726.6396591555 101.3 65 17 40 4669
627749.0671968329 1013732.5111477798 95.3 65 17 44 4669
627748.3135288015 1013727.709488499 101.8 65 17 48 4669
627750.6138629458 1013726.5558260031 100.4 65 17 52 4669
627747.5231775194 1013737.6481776382 102.6 65 17 56 4669
627762.3885362361 1013680.5479172586 99.2 65 18 00 4669
627752.727016744 1013691.5416105817 87.5 65 18 08 4669
627748.0262232075 1013690.8297468561 92.4 65 18 12 4669
627738.1790845116 1013677.6719212075 138.6 65 18 16 4669
627749.4208784808 1013697.9003924126 67.5 66 06 00 4669
627725.2264526668 1013710.7712057165 69.5 66 06 16 4669
627739.7827158591 1013677.8872110351 77.8 66 06 20 4669
627743.6330841075 1013707.1152005544 66.4 66 06 24 4669
627767.0855995162 1013723.1810857061 91.5 66 06 28 4669
627763.6669735338 1013733.7415863958 84.9 66 06 32 4669
627756.1050655036 1013741.0928908964 88.9 66 06 36 4669
627750.8505567567 1013738.3113676616 83.5 66 06 40 4669
627759.9004038055 1013743.1619759216 86.6 66 06 48 4669
627758.7213807383 1013740.7696095676 87.7 66 06 52 4669
627750.5697753184 1013729.9947571451 91.9 66 06 56 4669
627759.0489229287 1013741.4230977717 73.4 66 07 00 4669
627745.169625869 1013728.0752968421 102.3 66 07 08 4669
627612.0493808473 1013760.2996069425 108.0 66 07 32 4669
627597.1675201223 1013768.1580785005 87.8 66 07 36 4669
627548.9061234867 1013700.0501325927 109.5 66 07 40 4669
627537.2449147911 1013653.1371654035 125.1 66 07 44 4669
627579.6084812541 1013655.6956851102 115.8 66 07 48 4669
627610.0144561087 1013658.8901663489 92.0 66 07 52 4669
627644.3288729647 1013642.7566650509 62.3 66 07 56 4669
627649.2400385068 1013581.7649380924 42.5 66 08 00 4669
627628.1172292831 1013531.6034573696 21.5 66 08 08 4669
627655.3285878068 1013533.8808766389 88.3 66 08 12 4669
627656.7987942497 1013541.3830259531 76.7 66 08 16 4669
627648.6153334302 1013537.0439216445 66.9 66 08 20 4669
627667.2837701652 1013523.8013356384 69.1 66 08 24 4669
627647.0789691136 1013451.3828388173 81.0 66 08 28 4669
627612.0441879608 1013435.3349356095 102.5 66 08 32 4669
627604.34553998 1013433.9830990882 115.8 66 08 36 4669
627606.6176938727 1013434.7534465302 110.7 66 08 40 4669
627607.4244854815 1013436.7243953625 113.9 66 08 44 4669
627605.9462173055 1013435.1161955277 110.5 66 08 48 4669
627608.761331665 1013437.8898142021 113.5 66 08 52 4669
627605.7855216536 1013437.2388332998 111.2 66 08 56 4669
627606.3017060078 1013433.9230679254 108.6 66 09 00 4669
627608.2520865622 1013435.6544316909 110.1 66 09 08 4669
627610.8503837815 1013440.9154246618 115.9 66 09 12 4669
627610.1645729995 1013438.9116921248 110.3 66 09 16 4669
