627557.5034885248 1012673.8968157807 125.3 58 17 32 4675
627557.3262443207 1012677.7444635262 119.4 58 17 33 4675
627555.667947134 1012674.0235918621 111.9 58 17 36 4675
627559.3643299268 1012682.9594042633 112.8 58 17 40 4675
627571.2380512202 1012698.1915428175 97.4 58 17 44 4675
627588.3500867579 1012714.4579341693 128.1 58 17 48 4675
627577.6752145591 1012712.5214966125 110.5 58 17 52 4675
627564.63120679 1012705.8003185398 107.3 58 17 56 4675
627561.2163295168 1012711.7938514119 117.9 58 17 57 4675
627566.8795743596 1012717.3632893376 111.1 58 18 01 4675
627545.2712023946 1012711.90828608 85.4 58 18 04 4675
627551.6711607178 1012727.5540289651 124.4 58 18 08 4675
627546.9595418887 1012719.9419141074 111.9 58 18 12 4675
627548.0725719745 1012715.5554379923 113.2 58 18 16 4675
627534.9485900503 1012726.814485228 118.5 58 18 20 4675
627539.5647988708 1012723.1249108012 109.2 58 18 21 4675
627307.3289856785 1012906.9582058033 149.7 58 18 28 4675
627310.6672095441 1012924.7503720195 156.0 59 06 00 4675
627306.9563773735 1012937.35570759 171.5 59 06 12 4675
627309.7947128001 1012929.5246590861 151.6 59 06 16 4675
627310.4253579729 1012931.6056118229 159.1 59 06 20 4675
627278.801270284 1012914.0762257477 153.9 59 06 24 4675
627275.1385458735 1012891.2626452565 152.8 59 06 28 4675
627280.4549680592 1012885.098287216 142.8 59 06 32 4675
627245.2121061253 1012885.7036134538 176.7 59 06 36 4675
627244.2532212517 1012883.1792821804 152.9 59 06 40 4675
627244.664827212 1012891.8612092369 142.0 59 06 44 4675
627250.4908111454 1012898.0835512298 145.3 59 06 48 4675
627248.3404067078 1012876.5465240685 136.4 59 06 53 4675
627260.4610936757 1012896.9987776168 157.9 59 06 56 4675
627255.6860276073 1012905.6750673855 164.7 59 07 01 4675
627266.2063675065 1012897.5701770767 147.2 59 07 04 4675
627270.9003753992 1012893.5933167696 158.1 59 07 08 4675
627271.5384636206 1012893.3631510284 151.8 59 07 12 4675
627247.3505304119 1012880.236740734 144.0 59 07 16 4675
627253.1572892455 1012882.1905973981 148.2 59 07 20 4675
627238.866619834 1012883.8364887869 150.7 59 08 00 4675
627268.6469227481 1012893.8293403024 151.1 59 08 08 4675
627294.6505782084 1012848.1325532979 185.7 59 08 13 4675
627295.908165171 1012836.3818489378 154.9 59 08 16 4675
627297.5971058082 1012837.4156896727 155.2 59 08 17 4675
627298.7388551957 1012810.448675565 158.1 59 08 21 4675
627285.1038181382 1012779.099315294 203.6 59 08 24 4675
627270.891814576 1012766.5358045473 134.5 59 08 28 4675
627277.1465439853 1012752.2246505611 132.0 59 08 32 4675
627297.8044988224 1012752.5233742229 127.8 59 08 36 4675
627292.6093491071 1012751.7325820607 123.2 59 08 37 4675
627292.4007661762 1012755.0825127263 119.9 59 08 41 4675
627328.2375412997 1012727.0550525499 152.2 59 08 45 4675
627308.143162695 1012725.7739589121 144.0 59 08 48 4675
627298.5913778798 1012712.9047600349 148.2 59 08 52 4675
627323.9282016777 1012683.229007888 158.8 59 08 56 4675
627314.4407774796 1012660.6067750748 134.5 59 09 01 4675
627313.6052655033 1012674.3714111393 133.0 59 09 04 4675
627311.5736869087 1012670.5387698873 137.2 59 09 09 4675
627313.5564940429 1012669.0412531428 126.2 59 09 10 4675
627313.3081917891 1012671.0751428554 141.8 59 09 12 4675
627312.722088255 1012672.2232974998 155.8 59 09 13 4675
627318.689149992 1012675.593112175 144.3 59 09 16 4675
627306.293903491 1012675.5532036598 148.2 59 09 20 4675
627288.6668641057 1012709.9977058991 103.4 59 09 24 4675
627292.5883797063 1012737.7661431492 133.2 59 09 28 4675
627289.1196248529 1012736.615992571 135.7 59 09 32 4675
627286.9441539148 1012746.7603183361 177.7 59 09 36 4675
627299.3020555684 1012751.5661415843 131.8 59 09 40 4675
627290.6619795436 1012738.8104602399 133.2 59 09 44 4675
627291.6258502291 1012739.7866754294 135.3 59 09 45 4675
627290.8320783459 1012737.1744100994 136.2 59 09 48 4675
627304.2410631496 1012739.7609415783 139.6 59 09 53 4675
627299.8059693938 1012741.8145257522 130.7 59 10 01 4675
627314.6435206766 1012734.1548075555 170.5 59 10 25 4675
627288.0148406029 1012772.5844120205 164.5 59 10 28 4675
627275.0367531863 1012776.1033388296 171.7 59 10 33 4675
627245.8196727401 1012806.1868304774 147.9 59 10 37 4675
627223.2997692813 1012855.2122827282 137.6 59 10 41 4675
627229.0205430147 1012873.6424146356 152.8 59 10 44 4675
627221.882748129 1012882.3663946051 143.4 59 10 48 4675
627234.7465941581 1012883.602066971 129.8 59 10 52 4675
627236.2900292244 1012878.6308930754 150.6 59 10 56 4675
627228.8258917283 1012882.9084688281 129.3 59 11 00 4675
627212.2549850374 1012889.7001017756 141.1 59 11 16 4675
627217.5707423723 1012890.5686802997 164.2 59 11 20 4675
627217.2900066706 1012912.9272372077 179.9 59 11 24 4675
627239.1807798693 1012909.1384141734 155.4 59 11 28 4675
627276.3279764082 1012883.6142740671 140.4 59 11 32 4675
627317.8373005805 1012902.5909252076 136.3 59 11 36 4675
627293.669218593 1012995.920819746 160.4 59 11 40 4675
627291.0397730959 1012996.8965228277 139.8 59 11 44 4675
627288.3961486293 1012995.4504577758 137.1 59 12 00 4675
627228.2649145824 1013084.5177968579 130.7 59 12 17 4675
627237.307015836 1013119.147676065 105.0 59 12 21 4675
627253.7021552982 1013143.0306506297 117.4 59 12 24 4675
627327.7030703526 1013152.281328343 115.6 59 12 28 4675
627393.6738141845 1013157.3263032355 105.8 59 12 32 4675
627401.4530687807 1013167.7791662124 131.5 59 12 36 4675
627453.4419373135 1013184.3680669478 145.0 59 12 40 4675
627503.2485731437 1013175.704352284 96.9 59 12 44 4675
627524.2347286771 1013172.9854192802 96.6 59 12 48 4675
627540.3674045241 1013169.1781983336 162.1 59 12 53 4675
627525.7565370713 1013174.7264519002 110.6 59 12 56 4675
627521.0489742744 1013165.875837711 74.4 59 13 00 4675
627525.7433953864 1013209.4488554581 68.4 59 13 05 4675
627542.4116218693 1013186.1036947398 115.4 59 13 08 4675
627540.9801829207 1013187.0058398814 93.4 59 13 12 4675
627544.5040846465 1013188.078790036 99.4 59 13 13 4675
627542.4325204492 1013196.6531937827 95.5 59 13 16 4675
627536.2003121916 1013169.9167023263 46.0 59 13 20 4675
627536.4084188018 1013166.7215817978 116.2 59 13 24 4675
627535.6519544822 1013169.5831897027 114.9 59 13 25 4675
627547.583531084 1013177.0527397826 92.6 59 13 28 4675
627545.7696716386 1013173.8732101085 93.1 59 13 32 4675
627551.2610658299 1013171.3807424322 91.6 59 13 36 4675
627559.6300411173 1013165.9339906385 49.5 59 13 40 4675
627575.8980449331 1013164.460480412 110.9 59 13 44 4675
627566.6879302566 1013151.3379556787 74.9 59 13 48 4675
627559.9659081082 1013164.0109644011 70.7 59 13 52 4675
627550.8815755809 1013162.9864163346 80.5 59 13 57 4675
627567.7101395144 1013161.470479288 111.6 59 14 01 4675
627578.8571352701 1013170.2976538261 82.5 59 14 04 4675
627590.0796670618 1013172.744548862 93.9 59 14 08 4675
627578.0988171712 1013170.328380299 84.7 59 14 12 4675
627599.2828933119 1013181.1894795733 105.2 59 14 16 4675
627570.6821018497 1013173.5334067268 74.8 59 14 20 4675
627591.1796659345 1013172.3942406015 139.4 59 14 25 4675
627596.8253537471 1013176.5703150365 109.1 59 14 29 4675
627586.4601097687 1013174.0708948512 118.6 59 14 32 4675
627583.2539952281 1013166.4636263396 94.2 59 14 36 4675
627697.2768235131 1013216.162096308 157.0 59 14 41 4675
627543.8478889372 1013170.0851365408 80.7 59 14 44 4675
627528.0970599398 1013188.3686460955 86.1 59 14 48 4675
627538.4976693533 1013173.0977916719 96.2 59 14 52 4675
627537.2782282361 1013166.1935996126 99.3 59 14 56 4675
627552.9668693896 1013163.7782716216 117.1 59 15 00 4675
627569.5201906469 1013182.8516390894 118.4 59 15 09 4675
627556.7299972048 1013189.4673360534 101.0 59 15 13 4675
627559.1677632971 1013203.6185203601 90.3 59 15 16 4675
627589.7623221425 1013189.3527996524 92.9 59 15 20 4675
627589.6212201002 1013188.8104969299 93.9 59 15 21 4675
627588.0970489234 1013174.1867603193 101.1 59 15 25 4675
627567.925176409 1013179.9603252542 91.4 59 15 28 4675
627595.6457497876 1013164.1371953744 92.6 59 15 32 4675
627608.8528819982 1013157.7219012916 86.0 59 15 36 4675
627605.455651749 1013148.0461477075 88.4 59 15 40 4675
627582.9885678804 1013160.1817654789 71.7 59 15 44 4675
627586.3379098077 1013157.4612254071 77.9 59 15 48 4675
627551.7779241217 1013167.8548751228 55.7 59 15 52 4675
627577.7017761726 1013163.9686879808 83.7 59 15 57 4675
627567.8992278723 1013187.9994840322 108.7 59 16 01 4675
627536.0620185861 1013185.5302990507 65.8 59 16 04 4675
627540.94247602 1013181.6646538158 77.0 59 16 08 4675
627538.4243113613 1013182.2094327926 74.3 59 16 09 4675
627523.195058601 1013181.8838380934 39.0 59 16 13 4675
627586.5898554707 1013161.1112136408 88.3 59 16 16 4675
627623.7302461908 1013151.3230624655 133.9 59 16 21 4675
627605.3725196194 1013149.969989824 118.1 59 16 25 4675
627590.2722331332 1013164.1530221701 84.8 59 16 28 4675
627578.8215920837 1013130.2450810641 111.9 59 16 33 4675
627544.030100852 1013099.9994605005 74.7 59 16 36 4675
627530.3170292838 1013079.3097332433 117.1 59 16 40 4675
627510.2791202074 1013070.7966960726 62.8 59 16 44 4675
627504.6679941085 1013093.3702985736 101.9 59 16 48 4675
627508.8843166822 1013067.1540808132 114.8 59 16 52 4675
627507.3089206471 1013075.2103554807 87.0 59 16 56 4675
627502.8025744614 1013092.5459814279 107.8 59 17 00 4675
627529.8331754473 1013038.5480036828 77.7 60 06 20 4675
627554.9783488951 1013023.9992668678 119.9 60 06 24 4675
627579.3183227887 1012993.3694608255 102.8 60 06 28 4675
627583.9889252798 1012948.9862450064 122.6 60 06 32 4675
627569.2488041045 1012923.0516540054 120.4 60 06 36 4675
627583.8841593263 1012930.3751170586 114.8 60 06 40 4675
627578.4372701967 1012915.661317958 110.2 60 06 44 4675
627584.0240418398 1012900.651384042 119.3 60 06 48 4675
627586.7139192648 1012921.8142188012 137.7 60 06 52 4675
627575.5289952264 1012911.095993725 121.1 60 06 56 4675
627574.5829018728 1012911.4246837406 121.5 60 06 57 4675
627579.7113837462 1012912.436463333 110.2 60 07 00 4675
627454.861365266 1012839.5700202504 143.6 60 07 08 4675
627455.244069893 1012836.7514386924 146.1 60 07 09 4675
627409.813252848 1012813.8916727478 139.8 60 07 13 4675
627298.782388754 1012854.946584665 159.1 60 07 16 4675
627275.0427177838 1012845.9352134371 162.8 60 07 20 4675
627295.4440934557 1012861.0620197484 152.8 60 07 24 4675
627230.8233832008 1012876.844005002 142.5 60 07 32 4675
627240.5427557246 1012885.4342486543 157.9 60 07 36 4675
627232.1792202338 1012875.5324555527 141.8 60 07 40 4675
627223.5834741994 1012876.3230917341 137.3 60 07 44 4675
627218.6696835423 1012887.1331503208 160.2 60 07 52 4675
627223.7295502046 1012882.151175906 145.8 60 07 56 4675
627218.5781230651 1012881.437938767 145.1 60 08 00 4675
627209.4244376896 1012867.7959740219 133.9 60 08 08 4675
627206.4707246392 1012873.9237103114 141.9 60 08 12 4675
627217.4025728528 1012871.1169570066 155.8 60 08 16 4675
627236.5598860761 1012873.312819478 160.2 60 08 20 4675
627232.4955498336 1012872.8463573474 146.3 60 08 24 4675
627217.3399200054 1012829.1181263103 134.3 60 08 28 4675
627218.6443959866 1012833.5234439524 139.0 60 08 32 4675
627215.6879579646 1012830.251794079 160.7 60 08 36 4675
627189.1707877034 1012830.6530342217 126.7 60 08 40 4675
627244.186707471 1012818.4892309348 173.6 60 08 45 4675
627274.7208644494 1012761.5830465817 117.5 60 09 12 4675
627274.8970746965 1012761.4619747838 107.5 60 09 16 4675
627270.6194880742 1012776.0338292574 192.3 60 09 20 4675
627275.650021882 1012786.9975341397 175.7 60 09 32 4675
627288.4766725822 1012765.6635326417 146.2 60 09 36 4675
627291.9356209602 1012732.3124019 133.0 60 09 40 4675
627296.4755585653 1012728.4124527759 126.2 60 09 41 4675
627290.9146376566 1012687.6344205271 123.2 60 09 45 4675
627294.1290083724 1012692.709374678 134.6 60 09 48 4675
627324.6695988028 1012674.8051277527 128.1 60 09 52 4675
627330.4998233088 1012659.2430470538 141.6 60 09 56 4675
627328.254411807 1012663.802809469 122.6 60 10 00 4675
627324.9219632515 1012688.5732670852 150.8 60 10 08 4675
627322.575666811 1012683.5121632161 121.1 60 10 12 4675
627332.1515179039 1012682.0833296643 137.5 60 10 16 4675
627315.3181516377 1012664.5573392442 114.7 60 10 20 4675
627317.9750178157 1012668.7237367692 121.5 60 10 21 4675
627341.9209234853 1012675.1481906874 134.8 60 10 24 4675
627328.3730596724 1012678.1455392018 131.4 60 10 28 4675
627311.0150877476 1012687.0356465303 142.0 60 10 32 4675
627315.1735125128 1012685.5893671409 145.5 60 10 33 4675
627319.9643858104 1012672.0143959195 135.6 60 10 36 4675
627334.586629108 1012666.3886776735 177.3 60 10 41 4675
627303.9517927049 1012682.8440046642 136.8 60 10 44 4675
627331.2292128894 1012715.9734180381 180.4 60 10 49 4675
627324.6033861684 1012726.0812957332 159.3 60 10 53 4675
627345.3468444364 1012764.6634422003 153.6 60 10 57 4675
627366.2171451687 1012750.2113867921 135.2 60 11 00 4675
627362.7973516781 1012764.5648369875 128.5 60 11 08 4675
627362.7147499205 1012756.0940697183 124.0 60 11 12 4675
627363.7991017386 1012764.0151590798 120.5 60 12 00 4675
627363.4703501274 1012760.3206961653 143.9 60 12 41 4675
627368.3362986686 1012774.6123724492 107.2 60 12 45 4675
627362.9161613707 1012758.3837442807 143.9 60 12 48 4675
627362.4096138433 1012758.7138554559 143.9 60 12 49 4675
627361.9278541121 1012710.4105430146 103.7 60 12 57 4675
627378.3611049803 1012708.8600544549 122.0 60 13 13 4675
627362.203264135 1012699.9615301347 124.7 60 13 16 4675
627360.3894181679 1012700.1768496839 127.9 60 13 17 4675
627371.5116276576 1012696.2870514595 131.3 60 13 20 4675
627363.5370556945 1012664.5578056616 134.0 60 13 24 4675
627366.2949881684 1012668.0499888031 123.8 60 13 28 4675
627366.3666387413 1012676.5096624059 132.3 60 13 33 4675
627332.4136729236 1012658.6852470321 138.3 60 13 36 4675
627341.6771067532 1012675.7887749698 132.5 60 13 40 4675
627346.9457294611 1012701.5379284945 122.8 60 13 44 4675
627346.7697821968 1012728.8729719969 143.1 60 13 48 4675
627360.6492355834 1012755.9768353971 133.3 60 13 52 4675
627327.7558167166 1012784.511359138 150.2 60 13 56 4675
627285.1552384706 1012841.6329970788 157.3 60 14 00 4675
627250.592300734 1012887.0368437122 165.1 60 14 08 4675
627262.6329591639 1012887.9713072993 173.5 60 14 12 4675
627242.6326958415 1012884.7885478019 150.5 60 14 16 4675
627256.289370365 1012882.1011563286 157.8 60 14 20 4675
627245.1119098313 1012879.2785394865 163.7 60 14 40 4675
627238.3000608482 1012892.5705578756 147.1 60 14 44 4675
627225.4852255164 1012889.76479271 132.6 60 14 48 4675
627215.1720961959 1012888.1171235188 114.0 60 14 52 4675
627218.6898597698 1012880.8632775943 136.6 60 14 56 4675
627223.3370124853 1012884.615867039 138.2 60 15 00 4675
627224.3792391466 1012878.3161089919 130.7 60 15 08 4675
627230.6559079803 1012867.421972102 142.1 60 15 12 4675
627239.9099609293 1012873.7769832044 156.3 60 15 16 4675
627222.7624009126 1012885.6092461074 171.5 60 15 20 4675
627238.5010495692 1012881.3361834636 143.3 60 15 24 4675
627229.6879672575 1012874.5402679474 158.8 60 15 28 4675
627247.4039505771 1012890.9522039532 139.7 60 15 32 4675
627309.7079281022 1012932.5874718119 165.7 60 15 36 4675
627297.0542913644 1012934.3270769313 165.3 60 15 40 4675
627304.3458010163 1012932.470681006 172.3 60 15 44 4675
627299.7810506582 1012930.4323502111 173.5 60 16 00 4675
627304.9312040753 1012928.1267350614 133.6 61 06 32 4675
627233.8963602516 1012891.704911802 142.9 61 06 36 4675
627224.9887812808 1012873.2976971181 132.1 61 06 40 4675
627226.779402558 1012870.0523806901 137.2 61 06 44 4675
627231.2637272079 1012869.7682435886 143.1 61 06 48 4675
627231.6535451123 1012874.9778592117 140.5 61 06 52 4675
627242.2549537808 1012886.0700706792 150.6 61 06 56 4675
627252.8705485645 1012896.1671031583 148.8 61 07 00 4675
627226.308335374 1012876.4313834264 135.9 61 07 08 4675
627232.6172193128 1012882.8432636855 139.8 61 07 12 4675
627254.0288340481 1012884.5377183424 138.7 61 07 16 4675
627246.5327352367 1012885.0886109489 148.6 61 07 20 4675
627292.953429265 1012835.996360319 155.6 61 07 28 4675
627272.5393824701 1012841.868834556 158.8 61 07 32 4675
627265.376163075 1012844.8314604239 166.0 61 07 36 4675
627249.0968801199 1012795.1503443508 139.2 61 07 53 4675
627275.7330573668 1012764.6162221625 172.1 61 07 57 4675
627262.1919488265 1012768.9405817016 167.9 61 08 00 4675
627278.9389762521 1012861.0641699636 136.8 61 08 13 4675
627253.8827170759 1012882.1376419724 128.8 61 08 16 4675
627255.0232413432 1012876.0261880837 115.0 61 08 20 4675
627262.1902920277 1012885.5260438374 167.7 61 08 24 4675
627259.8566290564 1012879.956311124 160.7 61 08 28 4675
627250.3028000265 1012871.1454333822 147.5 61 08 32 4675
627261.3385746708 1012877.0196288947 148.9 61 08 37 4675
627209.996901056 1012894.7906156064 162.3 61 08 52 4675
627211.4614446054 1012876.7706401254 152.9 61 08 56 4675
627220.4849569022 1012879.6416060595 154.1 61 09 00 4675
627210.3993715175 1012885.8237989998 168.9 61 09 08 4675
627234.3623723895 1012873.2393985509 138.3 61 09 12 4675
627227.6762583673 1012861.1203291103 110.0 61 09 16 4675
627227.4357520582 1012877.8062149497 145.9 61 09 20 4675
627255.3757172914 1012892.8356231205 172.2 61 09 24 4675
627320.0975116567 1012886.6081993008 174.0 61 09 28 4675
627353.9459867073 1012868.5819468091 116.7 61 09 32 4675
627348.7805412544 1012875.6314306546 117.3 61 09 33 4675
627361.0607406154 1012890.8979883181 139.1 61 09 37 4675
627377.8334131162 1012903.348153084 146.4 61 09 40 4675
627416.2758694175 1012905.5730740319 127.0 61 09 44 4675
627466.9002071989 1012881.9724133075 137.2 61 09 48 4675
627463.0927464424 1012849.5488470295 137.9 61 09 52 4675
627498.0270639788 1012828.7837975094 147.2 61 09 57 4675
627519.8108391316 1012803.6858139391 143.1 61 10 01 4675
627511.9436496187 1012817.0739172407 89.7 61 10 05 4675
627525.9884370115 1012809.9093341742 122.1 61 10 09 4675
627528.9207608772 1012800.2097791478 127.6 61 10 12 4675
627535.0547981451 1012809.7174166827 103.3 61 10 17 4675
627558.0887860039 1012799.0321906781 119.9 61 10 21 4675
627561.8637503467 1012804.0426324339 145.1 61 10 28 4675
627526.967719256 1012778.8502854173 100.8 61 10 32 4675
627522.2730989716 1012783.0040477916 93.4 61 10 33 4675
627513.8078097457 1012797.8498914868 131.1 61 10 37 4675
627521.8669141784 1012786.2869938294 88.3 61 10 45 4675
627521.8884278683 1012786.4308185359 86.2 61 10 46 4675
627520.4556997988 1012794.5428439602 128.2 61 10 48 4675
627519.1953549823 1012762.8352026996 114.7 61 10 53 4675
627523.7636991299 1012777.3913399521 138.1 61 10 57 4675
627487.9652741032 1012756.0001097538 132.1 61 11 08 4675
627488.0756313251 1012759.2626050904 132.3 61 11 09 4675
627467.3121136643 1012750.8025638774 96.4 61 11 13 4675
627478.4270309252 1012755.9914723766 120.0 61 11 17 4675
627469.250051096 1012752.9983151519 120.0 61 11 21 4675
627471.3477893546 1012770.3884103796 113.1 61 11 28 4675
627490.3634934125 1012761.9902747063 132.8 61 11 32 4675
627495.5090757144 1012757.7052656461 128.7 61 11 36 4675
627497.4731715677 1012744.9726674651 115.3 61 11 45 4675
627480.7750781926 1012757.0937947045 113.9 61 11 49 4675
627475.8525270913 1012750.1444953905 86.5 61 11 52 4675
627477.3470586934 1012750.1271976407 135.2 61 11 57 4675
627465.7511420408 1012747.5685666578 131.6 61 12 00 4675
627450.9720360884 1012743.9049267211 130.4 61 12 08 4675
627450.8981910065 1012746.3595865831 126.6 61 12 12 4675
627446.2089691745 1012752.249496249 147.1 61 12 16 4675
627445.2821277723 1012760.2415139796 149.8 61 12 48 4675
627412.1708870702 1012757.4587410262 131.1 61 12 52 4675
627378.3655747281 1012710.8837003899 114.7 61 12 57 4675
627352.3822250899 1012661.5140767023 141.6 61 13 00 4675
627319.7121930836 1012668.4307616042 152.5 61 13 08 4675
627324.7216088511 1012679.1290098687 132.7 61 13 12 4675
627312.4373434711 1012671.9238122021 129.0 61 13 16 4675
627322.5179866683 1012674.123655977 140.5 61 13 20 4675
627322.5289888161 1012670.7067404748 151.8 61 13 24 4675
627322.6031458739 1012668.1525596307 146.3 61 13 28 4675
627327.11615297 1012669.2065521087 137.5 61 13 32 4675
627320.0870680888 1012664.6279844736 139.8 61 13 36 4675
627321.2322781173 1012663.8907795935 123.2 61 13 40 4675
627325.5799347963 1012661.6931598833 134.1 61 13 44 4675
627339.5192685918 1012683.8652928328 158.6 61 13 48 4675
627330.5098440505 1012669.781442769 134.8 61 13 52 4675
627345.2085885674 1012671.1115158761 166.1 61 13 56 4675
627339.3832828072 1012674.9077985577 144.6 61 14 00 4675
627360.4383895545 1012678.1492820438 164.1 61 14 08 4675
627341.0415483763 1012682.0566676991 184.0 61 14 24 4675
627327.4349482756 1012699.8827310075 229.0 61 14 29 4675
627300.5412638974 1012687.4995399202 157.5 61 14 33 4675
627305.0014972141 1012687.8788165153 182.0 61 14 36 4675
627282.6212128341 1012683.2508352129 126.6 61 14 40 4675
627317.2439886945 1012690.992383275 197.1 61 14 44 4675
627313.9445392092 1012671.3868183009 127.4 61 15 37 4675
627328.569787928 1012678.4779154975 150.4 61 15 40 4675
627344.5994333352 1012665.7684945236 167.4 61 15 44 4675
627316.6627762348 1012687.2086438944 121.9 61 15 48 4675
627305.7480638693 1012684.6743731056 122.2 61 15 52 4675
627318.778337263 1012685.4351025835 129.1 61 15 56 4675
627326.9046339458 1012676.8801880977 121.4 61 16 00 4675
627325.7297832392 1012673.1719436534 112.1 61 16 08 4675
627327.6306215305 1012680.0672568316 135.1 61 16 12 4675
627311.3407400694 1012674.6295143781 137.4 61 16 16 4675
627305.2896366626 1012673.4710489427 134.9 61 16 20 4675
627306.2174913822 1012692.4607820015 93.6 61 16 24 4675
627363.2991622734 1012745.2369024315 158.7 61 16 33 4675
627361.6151879462 1012766.5404280941 117.0 61 16 36 4675
627382.6722586061 1012796.4430067568 164.5 61 16 40 4675
627416.1797845 1012812.6405086183 156.9 61 16 44 4675
627424.383929531 1012803.7983545823 151.2 61 16 49 4675
627422.9143234931 1012799.4920181104 141.5 61 16 53 4675
627444.6947047068 1012809.5255660906 171.4 61 17 01 4675
627449.0280121069 1012794.7327400913 152.7 61 17 05 4675
627449.2848464985 1012779.8272508204 143.0 61 17 09 4675
627451.1623207936 1012773.5080703102 159.0 61 17 12 4675
627449.4210390885 1012771.6668129642 156.1 61 17 13 4675
627466.484825193 1012765.4076459629 142.3 61 17 16 4675
627460.8568681756 1012762.5254550294 148.0 61 17 17 4675
627461.2707130742 1012770.4996785987 140.5 61 17 21 4675
627455.7168255498 1012768.5023750374 144.1 61 17 24 4675
627446.6355332175 1012776.7335014332 126.6 61 17 28 4675
627444.803698014 1012762.0756162116 147.0 61 17 33 4675
627437.6146815427 1012762.8043952747 138.6 61 17 36 4675
627460.2338025457 1012764.9119958564 132.5 61 17 40 4675
627459.9262266186 1012764.8778300319 134.4 61 17 41 4675
627457.5206789497 1012767.977401202 131.1 61 17 44 4675
627447.9078001096 1012767.2608119029 126.4 61 17 48 4675
627450.8794012314 1012762.415885283 138.4 61 17 52 4675
627448.4064710033 1012769.3745161573 128.2 61 17 56 4675
627408.0300293063 1012825.0656627984 162.2 61 18 01 4675
627402.3136033668 1012859.8691904711 166.3 61 18 04 4675
627404.383019251 1012855.3641554653 170.2 61 18 08 4675
627394.4093544545 1012854.0824509269 180.8 61 18 12 4675
627401.7858368102 1012853.1441664592 165.6 61 18 16 4675
627404.3407133451 1012848.0325004552 139.6 62 06 00 4675
627404.0095477971 1012855.3187195397 173.0 62 06 24 4675
627401.3638228764 1012847.7022225844 141.3 62 06 28 4675
627371.7120354996 1012842.1550403087 137.2 62 06 32 4675
627261.4535695639 1012892.5013287481 147.1 62 06 36 4675
627231.1209778384 1012886.8083032054 154.6 62 06 40 4675
627288.4764595435 1012939.7953289712 143.4 62 06 44 4675
627556.3009873489 1012900.1638326186 113.0 62 06 48 4675
627592.3766105251 1012839.0183507757 120.4 62 06 52 4675
627580.3947925178 1012850.4911701133 88.4 62 06 56 4675
627586.2683366733 1012848.7740021581 98.3 62 07 00 4675
627570.5621994702 1012836.1391975594 115.7 62 07 16 4675
627561.971210263 1012828.6362001967 98.4 62 07 21 4675
627567.557018797 1012820.7366210945 130.0 62 07 24 4675
627550.9420921626 1012827.5169225972 103.5 62 07 28 4675
627555.7781010875 1012823.8170021976 108.7 62 07 32 4675
627557.3759882617 1012829.2295697947 112.0 62 07 36 4675
627573.0650950216 1012785.8439615668 82.8 62 07 41 4675
627549.9716788243 1012763.8522960901 97.5 62 07 44 4675
627546.1295241372 1012752.4168821991 102.8 62 07 48 4675
627532.3236336443 1012746.832240429 100.9 62 07 52 4675
627519.6139372452 1012718.2281730656 128.4 62 07 56 4675
627452.468344545 1012661.5158584906 112.2 62 08 00 4675
627349.3654722181 1012649.6721998883 102.1 62 08 08 4675
627360.1650872587 1012650.4146997158 144.9 62 08 12 4675
627353.4332349151 1012652.4940564026 143.2 62 08 16 4675
627344.73232008 1012651.8025493325 125.1 62 08 20 4675
627354.0625074222 1012644.7664749239 154.1 62 08 24 4675
627359.1505651328 1012651.5172416503 131.4 62 08 28 4675
627342.5494500464 1012650.5901874064 143.0 62 08 32 4675
627324.6873526955 1012672.7041471162 141.8 62 08 36 4675
627321.8924809964 1012656.7936093059 118.7 62 08 40 4675
627326.0795042585 1012663.5304120273 132.1 62 08 44 4675
627324.0939631688 1012672.702236429 155.7 62 08 48 4675
627314.9801467971 1012670.5607956453 143.6 62 08 52 4675
627315.7420566942 1012672.8301579226 176.6 62 08 56 4675
627314.8665185603 1012681.961324056 169.4 62 09 00 4675
627322.567312967 1012682.6938373848 191.5 62 09 12 4675
627314.1094408402 1012671.3652330464 165.0 62 09 17 4675
627320.3358466864 1012659.0333901952 106.4 62 09 20 4675
627302.4660880173 1012669.8791366032 148.3 62 09 24 4675
627308.192123773 1012669.6100609456 151.5 62 09 25 4675
627314.6782817013 1012655.1006093175 140.8 62 09 29 4675
627323.5616770829 1012643.4850392749 127.6 62 09 32 4675
627312.7922801581 1012674.3135031229 127.0 62 09 36 4675
627321.6407243353 1012687.2025560472 144.2 62 09 40 4675
627334.0286548808 1012675.8636674702 128.0 62 09 44 4675
627323.0753393561 1012668.2536028893 133.8 62 09 48 4675
627280.1869004146 1012688.4624189103 105.3 62 09 52 4675
627280.3382148546 1012689.248030521 104.9 62 09 53 4675
627291.2548845173 1012691.174105467 131.9 62 09 57 4675
627281.4785107576 1012713.9333630779 137.5 62 10 01 4675
627267.9500777433 1012745.0404624623 152.7 62 10 04 4675
627266.0452005457 1012756.4683983335 150.2 62 10 08 4675
627247.6138383248 1012795.0128741881 144.9 62 10 12 4675
627243.9759955015 1012791.7722035755 154.7 62 10 13 4675
627247.2617603969 1012842.9485688108 152.4 62 10 17 4675
627227.0428451502 1012870.1416932127 153.5 62 10 20 4675
627218.5282328271 1012879.8675292903 126.4 62 10 24 4675
627225.1726271352 1012877.6330605336 147.2 62 10 28 4675
627220.1720511955 1012877.8491883697 153.1 62 10 32 4675
627215.1650769584 1012876.638802511 150.2 62 10 36 4675
627218.2264069784 1012867.8021807232 147.9 62 10 40 4675
627222.1272096508 1012878.1098161807 147.0 62 10 44 4675
627229.184111593 1012880.8638747385 159.4 62 10 48 4675
627228.2506826983 1012880.6728832158 158.9 62 10 49 4675
627216.977398687 1012887.1387627189 128.2 62 10 52 4675
627221.3426396941 1012879.4674366299 145.2 62 10 56 4675
627225.2977275373 1012896.8081935262 133.3 62 11 00 4675
627240.2191731018 1012873.3024804473 152.1 62 11 08 4675
627250.220551986 1012855.7301882484 152.6 62 11 12 4675
627257.2333796336 1012851.6944409773 129.6 62 11 17 4675
627247.5829757573 1012848.9873208478 145.4 62 11 20 4675
627271.7878661745 1012826.1307493569 166.7 62 12 01 4675
627227.8938304093 1012875.4633737508 148.6 62 12 28 4675
627237.5722473161 1012879.7076546767 142.8 62 12 32 4675
627232.213194165 1012885.4627311128 137.3 62 12 36 4675
627240.1654495626 1012883.1661254549 138.2 62 12 40 4675
627233.6504162048 1012875.9352815957 133.4 62 12 44 4675
627240.5599545201 1012876.6762952531 150.8 62 12 48 4675
627233.2279563106 1012884.282781143 149.6 62 12 52 4675
627232.6600430878 1012879.7803101372 146.8 62 12 56 4675
627229.5085037117 1012882.5015162429 142.2 62 13 00 4675
627217.0492692954 1012830.6542656814 145.3 62 13 13 4675
627277.616231115 1012835.0291605962 172.0 62 14 00 4675
627264.3229380185 1012875.0277209586 149.1 62 14 32 4675
627221.1296139976 1012884.1996141323 148.9 62 14 36 4675
627218.7349885767 1012880.4985058113 158.8 62 14 40 4675
627226.4419125733 1012889.5577677522 160.4 62 14 44 4675
627229.3055559556 1012880.68733611 151.7 62 14 48 4675
627221.4109200932 1012878.7378223401 137.8 62 14 52 4675
627223.7354929814 1012880.3044937893 150.9 62 14 56 4675
627221.1106755253 1012876.4257150992 142.5 62 15 00 4675
627229.8055092565 1012885.8198995263 160.3 62 15 08 4675
627203.0577515999 1012930.5743852537 148.1 62 15 12 4675
627180.4740827617 1012955.0506837306 122.2 62 15 16 4675
627186.9900803728 1012955.1490543486 133.6 62 15 20 4675
627161.2651950162 1013009.8923039071 134.0 62 15 24 4675
627143.9859184957 1013031.9529000542 114.7 62 15 28 4675
627144.3684046372 1013056.525204872 121.6 62 15 32 4675
627221.564589683 1013015.3720961193 151.1 62 15 36 4675
627218.0839615967 1013007.6755202068 122.1 62 15 40 4675
627285.9976139746 1013003.2055164512 138.6 62 15 44 4675
627315.5791779506 1012996.4005302867 151.7 62 15 48 4675
627305.9618611019 1012983.4315852819 179.5 62 15 52 4675
627313.8772915518 1012982.329151968 195.4 62 15 56 4675
627309.0820717502 1012980.2016122228 184.3 62 16 00 4675
627244.2407654796 1012938.2595991467 151.4 62 16 08 4675
627243.3613556784 1012938.3562913551 157.3 62 16 12 4675
627212.7431667622 1012949.7139329903 109.9 62 16 17 4675
627264.4964791687 1012930.3519180819 132.9 62 16 20 4675
627249.0429742533 1012924.5630220842 121.3 62 16 24 4675
627242.0193862021 1012914.8756422139 118.9 62 16 28 4675
627256.0946505945 1012911.8689145742 128.9 62 16 32 4675
627255.4475674976 1012911.4797983787 127.3 62 16 33 4675
627284.7367362987 1012893.1181324142 198.1 62 16 36 4675
627253.1091959666 1012886.8901318349 163.4 62 16 40 4675
627261.6750864247 1012891.9601952867 148.1 62 16 44 4675
627260.5281395622 1012893.2392419388 149.1 62 16 48 4675
627267.5068592558 1012899.7970403319 153.9 62 16 52 4675
627254.2011439494 1012892.4558671374 174.9 62 16 56 4675
627240.8458196265 1012897.1125691524 166.6 62 17 00 4675
627248.5591421637 1012904.1814005217 152.6 62 17 08 4675
627346.3469459551 1013010.2448521598 163.5 62 17 12 4675
627338.6786830671 1013009.6672440144 154.9 62 17 13 4675
627339.6419564923 1013014.237340826 146.3 62 17 16 4675
627347.801431377 1013009.0110311597 159.7 62 17 20 4675
627350.9941664608 1013003.7355469788 166.7 62 17 24 4675
627347.2377383251 1013003.2037145527 165.1 62 17 28 4675
627354.7944732483 1013011.1124829735 158.4 62 17 36 4675
627346.5051875024 1013005.468264323 154.7 62 17 40 4675
627355.4906229881 1013006.503499528 163.0 62 18 00 4675
627364.8525505166 1013013.4670899232 136.8 63 06 24 4675
627362.8777227426 1013009.0817205213 148.3 63 06 28 4675
627359.5367956177 1013009.192595209 154.7 63 06 32 4675
627362.6790520382 1013012.7634266883 153.3 63 06 36 4675
627362.1079654095 1013012.6620637662 153.6 63 06 40 4675
627356.5527005604 1013014.5129834025 148.4 63 06 44 4675
627360.0338931705 1013018.6156953673 152.5 63 06 48 4675
627361.1691393392 1013017.5577758114 153.2 63 06 52 4675
627355.5009811183 1013016.9313180931 148.7 63 06 56 4675
627346.3590389119 1013009.902090131 128.5 63 07 00 4675
627368.8948441945 1012993.487075097 143.8 63 07 08 4675
627355.1696620323 1012966.2841682958 113.4 63 07 12 4675
627362.8289541198 1012945.7739593559 154.2 63 07 16 4675
627366.4476610024 1012951.5358286112 163.4 63 07 20 4675
627418.6099349777 1012921.2388642135 121.3 63 07 24 4675
627410.4059781387 1012936.848573416 139.8 63 07 28 4675
627411.7605737124 1012925.6953181304 149.8 63 07 32 4675
627401.847678375 1012874.8735273923 150.6 63 07 36 4675
627392.3737824002 1012854.9052490176 162.1 63 07 40 4675
627372.2549446305 1012851.0032665022 132.2 63 07 44 4675
627360.8982658593 1012818.53328457 139.0 63 07 48 4675
627341.8053799443 1012738.3227124708 118.4 63 07 53 4675
627383.7791824284 1012718.9072019247 142.7 63 07 57 4675
627354.5708926257 1012684.8094732236 144.1 63 08 00 4675
627304.8383050297 1012677.1298246786 127.3 63 08 08 4675
627306.3324589604 1012673.8172071803 134.8 63 08 12 4675
627324.9013090546 1012677.9242562834 168.0 63 08 16 4675
627324.4318929897 1012676.9606906207 135.9 63 08 20 4675
627322.8404733051 1012662.7016836607 147.6 63 08 24 4675
627313.16001093 1012669.3164289324 143.9 63 08 28 4675
627294.9193955848 1012675.892560148 119.6 63 08 32 4675
627323.5222797104 1012669.3719094553 151.9 63 08 36 4675
627318.5199584765 1012690.5984003362 171.6 63 09 00 4675
627333.2961231165 1012664.4714717622 141.8 63 09 17 4675
627323.4682666933 1012658.8444304252 127.5 63 09 20 4675
627325.9191957917 1012662.1255179413 142.5 63 09 24 4675
627314.7825308103 1012660.2650745156 145.8 63 09 28 4675
627321.5516936661 1012673.8993827389 133.1 63 09 32 4675
627303.5786993959 1012675.8540887397 146.1 63 09 36 4675
627302.8812377092 1012691.1120116209 143.8 63 09 41 4675
627285.0425483533 1012688.8982565044 111.5 63 09 45 4675
627315.0570032453 1012687.645797387 144.5 63 09 48 4675
627314.4314084761 1012683.9946122991 154.2 63 09 52 4675
627315.327680596 1012665.0107517508 152.8 63 09 56 4675
627332.3642336369 1012643.3253954751 195.1 63 10 00 4675
627305.5392320778 1012667.622121312 143.5 63 10 08 4675
627348.1678598128 1012670.0926434572 158.0 63 10 40 4675
627348.646984176 1012647.5688480565 163.9 63 10 44 4675
627342.38862458 1012669.8196954112 174.9 63 10 48 4675
627307.3184142257 1012685.0001136153 141.6 63 10 52 4675
627318.8937020014 1012666.6698893565 132.6 63 10 56 4675
627302.9965713823 1012668.9409065434 126.1 63 11 04 4675
627303.7142068001 1012671.309648794 148.4 63 11 08 4675
627310.4714831756 1012668.1577311901 127.2 63 11 12 4675
627311.1932016566 1012662.4319625691 125.0 63 11 16 4675
627315.4345156605 1012672.7849353495 133.1 63 11 20 4675
627316.7165288385 1012663.6882522464 129.0 63 11 24 4675
627331.0928785153 1012662.7614305819 127.4 63 11 32 4675
627314.9643516279 1012672.0535873906 134.4 63 11 36 4675
627307.4311503532 1012673.8760348994 113.7 63 11 40 4675
627309.5004997966 1012686.4557492492 151.4 63 11 44 4675
627283.3103679683 1012684.2261656837 169.2 63 11 48 4675
627306.2754620025 1012681.2812364983 123.0 63 11 52 4675
627310.6292856601 1012683.9934287316 128.5 63 11 53 4675
627329.2135415382 1012676.4895315404 129.3 63 11 56 4675
627336.1811926485 1012676.2576324436 136.1 63 12 00 4675
627339.2332811353 1012666.8901972015 148.7 63 12 08 4675
627327.2256895534 1012659.0776909525 142.3 63 12 20 4675
627317.0060445686 1012662.5059684202 147.8 63 12 24 4675
627305.624222452 1012658.2893644762 148.4 63 12 28 4675
627307.8612767076 1012663.1510694261 132.5 63 12 32 4675
627312.2535493254 1012674.4002333389 133.4 63 12 36 4675
627313.2761891164 1012660.5366769497 144.9 63 12 40 4675
627309.3524752309 1012670.9960583962 150.0 63 12 44 4675
627325.8668379197 1012664.7350594612 144.0 63 12 48 4675
627318.650766168 1012660.2111805908 130.5 63 12 52 4675
627330.8907442802 1012653.8700722463 123.9 63 12 56 4675
627327.8556197806 1012654.5569589897 120.3 63 12 57 4675
627313.571020046 1012664.529597859 147.4 63 13 00 4675
627314.2920269228 1012659.024988813 125.1 63 13 08 4675
627321.1979946389 1012664.2998186664 137.3 63 13 12 4675
627318.9587665704 1012670.3524439761 136.6 63 13 16 4675
627368.362461312 1012640.2676550642 133.3 63 13 20 4675
627419.4607510276 1012636.772043623 158.1 63 13 24 4675
627392.1224539148 1012622.5406578588 116.9 63 13 28 4675
627425.3551332715 1012621.7741413906 105.5 63 13 32 4675
627414.1009942163 1012584.7485455013 97.3 63 13 36 4675
627404.4937031065 1012575.4619661957 116.7 63 13 45 4675
627413.1669018242 1012581.350700343 114.0 63 13 50 4675
627413.2174785598 1012586.1169028283 112.6 63 13 52 4675
627394.2380000221 1012573.0182622386 97.3 63 13 56 4675
627405.3265856591 1012572.755415947 105.5 63 14 00 4675
627433.5398750692 1012578.0436257374 168.7 63 14 09 4675
627403.1594637291 1012553.0097330845 114.5 63 14 12 4675
627446.0404597629 1012582.9162983091 192.6 63 14 17 4675
627440.5406907623 1012577.756559115 137.5 63 14 20 4675
627418.9231609334 1012578.5273160608 140.4 63 14 24 4675
627401.7062580894 1012564.0742054281 114.1 63 14 28 4675
627435.489168951 1012580.128829466 117.8 63 14 32 4675
627444.1623801837 1012562.1431388648 131.4 63 14 37 4675
627455.6808380489 1012578.5241287664 101.0 63 14 41 4675
627452.0723307087 1012579.8173543555 119.3 63 14 44 4675
627459.6861236708 1012600.730640681 111.1 63 14 48 4675
627447.7839271817 1012604.5404980028 117.9 63 14 52 4675
627473.8659764753 1012606.2279895352 102.4 63 14 56 4675
627515.7619631133 1012665.5349590493 138.6 63 15 04 4675
627517.4595843999 1012694.5458314829 108.5 63 15 08 4675
627515.0714304562 1012692.2491031532 100.7 63 15 09 4675
627519.6579654252 1012694.3538753033 114.8 63 15 12 4675
627536.2965343305 1012700.6995972473 124.5 63 15 16 4675
627535.3184048001 1012707.5524652702 111.9 63 15 20 4675
627546.3707492895 1012711.7017289308 119.3 63 15 24 4675
627543.8758745244 1012694.7969018982 101.1 63 15 28 4675
627548.1295036753 1012701.3127864049 108.6 63 15 29 4675
627541.3686089243 1012708.9874170733 137.5 63 15 32 4675
627523.8300501244 1012709.1188370466 114.4 63 15 37 4675
627555.3227535833 1012716.3086606644 131.1 63 15 40 4675
627500.0654038419 1012711.2427624139 88.5 63 15 44 4675
627547.0304838724 1012691.1357876682 149.0 63 15 49 4675
627584.3606593881 1012700.9873498583 180.7 63 15 52 4675
627533.7102855949 1012718.9371229182 118.4 63 15 56 4675
627532.3134308857 1012712.518918741 114.3 63 16 00 4675
627544.2010979871 1012723.4273763722 129.3 63 16 12 4675
627547.7892225028 1012718.2305846451 134.9 63 16 16 4675
627554.9354383146 1012717.1478269784 131.9 63 16 20 4675
627538.1430662612 1012703.9787511427 101.6 63 16 24 4675
627539.5390583663 1012703.8505566656 105.7 63 16 25 4675
627535.6380076003 1012710.6718807265 116.8 63 16 32 4675
627531.2827051866 1012711.8299920326 123.1 63 16 36 4675
627542.0471970534 1012709.8300216319 129.6 63 16 40 4675
627537.8307881958 1012712.216029536 141.6 63 16 44 4675
627524.4648393214 1012720.1347529936 131.8 63 16 48 4675
627514.8415754696 1012726.0419176564 109.4 63 16 52 4675
627509.9794106479 1012731.0355573433 85.8 63 16 56 4675
627510.8318512944 1012729.0810225134 93.8 63 16 57 4675
627516.4535455237 1012716.8688925111 160.3 63 17 01 4675
627520.1660289187 1012731.035234521 131.8 63 17 04 4675
627508.5803665036 1012718.4801015381 131.5 63 17 08 4675
627505.1615767363 1012725.6900164911 116.4 63 17 12 4675
627516.6279835373 1012724.1125111097 123.4 63 17 16 4675
627510.9965996171 1012722.2918799986 126.4 63 17 20 4675
627507.7552220656 1012722.1929624265 146.7 63 17 24 4675
627512.0273556834 1012719.5638531632 125.8 63 17 28 4675
627492.4116973536 1012740.2124218019 138.7 63 17 32 4675
627481.9865834068 1012742.6115901555 135.8 63 17 36 4675
627478.4487549829 1012739.0284176064 138.1 63 17 40 4675
627488.3801631787 1012736.3843781716 142.6 63 17 45 4675
627462.0032011347 1012754.6226096249 141.9 63 17 48 4675
627457.9446008495 1012755.7816846144 141.6 63 17 52 4675
627452.6115679858 1012770.4938809839 154.9 63 17 56 4675
627452.1672347249 1012768.5683394815 156.1 63 17 57 4675
627437.3247164296 1012791.39970292 147.2 63 18 00 4675
627401.1010974727 1012857.6204893657 156.6 63 18 08 4675
627399.3102910188 1012854.098243575 181.9 63 18 12 4675
627400.2479740791 1012856.3792332788 181.2 63 18 16 4675
627396.4821547046 1012848.5269072634 161.8 64 06 00 4675
627404.1612245775 1012849.1709060906 145.6 64 06 20 4675
627326.5768901864 1012826.4287988313 143.2 64 06 24 4675
627324.1493595578 1012826.1224124741 139.4 64 06 25 4675
627251.8727838866 1012885.2384962839 136.1 64 06 28 4675
627225.3313490931 1012889.7753556033 172.3 64 06 32 4675
627242.5502855491 1012876.2514355872 122.8 64 06 36 4675
627226.7718864492 1012875.8025639916 148.7 64 06 40 4675
627234.2312754244 1012879.8295992388 148.7 64 06 44 4675
627230.0295479514 1012870.8369065954 140.9 64 06 48 4675
627231.8724557838 1012878.6609082037 152.3 64 06 52 4675
627227.7163091045 1012889.6503337399 149.6 64 06 56 4675
627227.2147338442 1012878.192536875 148.2 64 07 00 4675
627222.0569008996 1012879.4697351413 135.1 64 07 08 4675
627220.7783615344 1012870.4201022388 144.3 64 07 12 4675
627209.5151458217 1012873.7565767773 139.1 64 07 16 4675
627216.8310214436 1012871.1593501847 150.8 64 07 20 4675
627232.0638098186 1012880.6630386062 141.7 64 07 24 4675
627230.1609690236 1012877.8039271523 143.9 64 07 28 4675
627233.2392214934 1012887.6113029786 156.2 64 07 32 4675
627240.5960796584 1012892.7659352147 160.1 64 07 36 4675
627239.092105149 1012888.8907624775 161.3 64 07 40 4675
627250.9842283637 1012874.5203448345 160.6 64 07 44 4675
627254.5722798144 1012838.6041523981 140.3 64 07 48 4675
627263.1759046756 1012797.8164272953 148.9 64 07 52 4675
627302.9513411486 1012785.3824826056 200.3 64 07 56 4675
627246.2486947193 1012819.7011992808 92.2 64 08 01 4675
627289.1539059187 1012848.844689827 163.7 64 08 04 4675
627270.9689366192 1012862.0558564499 133.4 64 08 08 4675
627268.9723098595 1012895.1573589636 175.8 64 08 12 4675
627241.5993160683 1012932.7220508709 169.2 64 08 16 4675
627306.1469845137 1012946.4207385839 118.5 64 08 21 4675
627360.3986735245 1012905.3930195889 156.7 64 08 24 4675
627358.448238006 1012900.2557794445 129.9 64 08 28 4675
627342.936687714 1012909.0744039444 129.0 64 08 32 4675
627351.0432175583 1012899.8227749345 121.4 64 09 00 4675
627330.4590598298 1012678.7272772135 119.1 64 09 45 4675
627288.2388899005 1012682.5059101564 143.1 64 09 49 4675
627336.4108608651 1012649.2987387176 139.3 64 09 53 4675
627313.5609926267 1012664.2309970565 128.3 64 09 56 4675
627312.3534339584 1012667.2680847894 134.4 64 10 00 4675
627301.9631239773 1012672.5093434732 123.3 64 10 04 4675
627335.2551340214 1012697.663120585 125.1 64 10 09 4675
627333.3677096288 1012672.9532603681 132.0 64 10 28 4675
627332.0713427316 1012669.4436700688 136.7 64 10 29 4675
627333.3495710511 1012664.9360838191 139.8 64 10 32 4675
627306.3419527216 1012643.5622953991 121.1 64 10 36 4675
627308.2877006641 1012643.3363396438 123.4 64 10 37 4675
627337.8868913136 1012668.6772726814 167.9 64 10 41 4675
627331.3012935765 1012666.2896336485 181.3 64 10 45 4675
627312.2741507768 1012671.4146144895 148.6 64 10 49 4675
627357.0388748624 1012675.9709461533 192.2 64 10 52 4675
627329.8480717811 1012660.3025253821 178.9 64 10 56 4675
627357.9187870396 1012668.8965994506 218.6 64 11 00 4675
627311.2376637816 1012679.3399302312 135.9 64 11 08 4675
627319.4173457681 1012678.0945859788 130.6 64 11 12 4675
627310.5972253573 1012659.8203337974 121.1 64 11 16 4675
627306.8100046584 1012668.8426027694 119.8 64 11 20 4675
627310.467032906 1012669.539978508 129.9 64 11 24 4675
627306.8167681983 1012676.9813810363 146.1 64 11 28 4675
627289.6803769472 1012678.485404767 188.6 64 11 32 4675
627299.1724836042 1012686.0022907568 125.9 64 11 36 4675
627311.7406235165 1012697.1893122069 142.8 64 12 00 4675
627296.5374163951 1012681.8912552032 138.1 64 13 32 4675
627301.1179207391 1012682.4589060397 158.2 64 13 36 4675
627289.1554826765 1012677.6875324285 146.8 64 13 40 4675
627317.7036792974 1012677.9121387778 132.4 64 13 44 4675
627321.3882205733 1012663.2388541864 139.5 64 13 48 4675
627311.8407871488 1012662.6662674893 160.5 64 13 52 4675
627327.4406646827 1012667.3940696635 147.7 64 13 56 4675
627328.2922065872 1012665.7159813932 117.5 64 14 00 4675
627329.1716426989 1012651.9625445524 127.5 64 14 08 4675
627326.5726288742 1012667.3691583974 135.4 64 14 12 4675
627307.9600083178 1012670.0295211797 119.9 64 14 16 4675
627310.2295272629 1012685.2859385642 142.6 64 14 20 4675
627295.3958515313 1012688.323390166 127.1 64 14 25 4675
627326.6216999977 1012720.3818184925 195.7 64 14 28 4675
627321.8625681855 1012676.3221062212 135.5 64 14 32 4675
627339.7498062212 1012670.2866954993 140.6 64 14 36 4675
627357.8900043835 1012664.1857583418 149.5 64 14 40 4675
627347.7567307055 1012661.2669600019 149.0 64 14 44 4675
627326.3144821038 1012658.8093626432 143.7 64 14 48 4675
627315.6040612268 1012657.6690676573 122.3 64 14 52 4675
627312.8395250029 1012659.6395655039 119.8 64 14 56 4675
627338.3544050524 1012673.643862496 151.7 64 15 01 4675
627324.9354335052 1012663.9137614513 149.4 64 15 04 4675
627323.206500493 1012647.99559781 143.8 64 15 08 4675
627320.8083418187 1012645.3892242329 159.2 64 15 12 4675
627301.4343637058 1012614.8839201172 153.5 64 15 16 4675
627264.1631341035 1012590.0933532893 160.6 64 15 20 4675
627238.7009285978 1012590.4316273418 158.8 64 15 24 4675
627238.7256705827 1012596.4030756471 167.6 64 15 29 4675
627207.3908927043 1012574.2413795118 159.3 64 15 32 4675
627171.2203041422 1012586.4658727779 141.9 64 15 36 4675
627147.7563794225 1012587.3303617575 157.5 64 15 40 4675
627104.8227671077 1012604.5093061185 139.7 64 15 44 4675
627118.1433642101 1012610.6783028187 191.5 64 15 48 4675
627080.2769038551 1012600.1067077708 182.9 64 15 53 4675
627080.2952921992 1012601.2236334038 183.9 64 15 57 4675
627057.0690449339 1012589.6817686582 166.0 64 16 00 4675
627072.1157854858 1012588.7348880353 163.9 64 16 04 4675
627065.4873035126 1012596.2662606215 188.1 64 16 08 4675
627087.5370908446 1012597.7525511637 218.4 64 16 12 4675
627068.6168372128 1012593.5560277511 158.6 64 16 16 4675
627054.2842581224 1012594.5383782164 149.4 64 16 21 4675
627056.8979298996 1012581.3765980594 159.1 64 16 24 4675
627060.2320977729 1012593.6396673621 157.6 64 16 28 4675
627055.5847876385 1012589.9202777137 154.2 64 16 32 4675
627068.0097294392 1012584.1436474408 130.3 64 16 36 4675
627064.766380055 1012581.2360081021 125.3 64 16 37 4675
627060.5939943347 1012587.0280960288 142.1 64 16 40 4675
627061.2959216257 1012587.4505585185 150.1 64 16 41 4675
627106.44544978 1012537.2703048467 176.3 64 16 44 4675
627116.4485424567 1012543.0968929328 114.0 64 16 49 4675
627140.3090767916 1012480.3968391368 170.5 64 16 53 4675
627142.2684144162 1012479.3636777347 169.5 64 16 57 4675
627192.6504844732 1012507.2704170862 125.5 64 17 00 4675
627233.1408256651 1012498.1339793938 185.0 64 17 08 4675
627220.264939128 1012497.1857953934 166.0 64 17 12 4675
627233.2557214851 1012503.4090576979 158.3 64 17 17 4675
627254.2438229343 1012524.0888644528 158.1 64 17 20 4675
627254.6562710977 1012525.6825566023 140.6 64 17 24 4675
627262.050692395 1012526.0159769806 147.0 64 17 28 4675
627257.1229423652 1012524.0760125213 154.6 64 17 32 4675
627245.1595913495 1012522.9870004263 153.3 64 17 36 4675
627233.8529019393 1012546.6370512249 165.1 64 17 40 4675
627233.9273238339 1012554.2452564195 156.6 64 17 44 4675
627218.241175381 1012566.0711805951 171.4 64 17 49 4675
627227.1253982444 1012564.4410480415 180.6 64 17 52 4675
627215.7013254233 1012563.0994422623 141.6 64 17 57 4675
627219.60073928 1012580.6832903123 174.8 64 18 00 4675
627217.8438218303 1012583.6964967326 173.1 64 18 08 4675
627214.6694346796 1012583.2660775499 116.3 65 06 00 4675
627302.8695239257 1012653.7909103173 131.8 65 06 17 4675
627311.1490903213 1012676.1327980163 104.6 65 06 21 4675
627315.7231926827 1012695.7535248908 153.9 65 06 24 4675
627310.7190266837 1012659.5332155236 120.8 65 06 28 4675
627309.1272319265 1012659.0415345719 135.3 65 06 32 4675
627312.6972270298 1012673.1189230101 145.1 65 06 36 4675
627314.9181993564 1012679.5618841889 139.3 65 06 40 4675
627301.9349643285 1012681.2562043061 142.5 65 06 44 4675
627308.241521315 1012698.6377145636 171.5 65 06 48 4675
627307.758619999 1012718.9277609993 146.0 65 06 52 4675
627286.5312383196 1012758.9671234948 139.6 65 06 56 4675
627284.7260055749 1012821.362130396 140.0 65 07 00 4675
627241.5156163686 1012927.9999761081 146.0 65 07 08 4675
627244.6327608065 1012939.3777282235 132.5 65 07 12 4675
627256.1721822459 1012966.2970966508 175.3 65 07 16 4675
627244.6832805232 1012944.1660448244 149.0 65 07 20 4675
627257.2587899554 1012939.3851966204 146.7 65 07 24 4675
