628693.9051696545 1012565.2282825023 115.2 51 02 45 4650
628687.8505274573 1012571.9098138846 123.1 51 03 00 4650
628713.6988670744 1012534.009214354 107.7 51 03 16 4650
628715.4832009831 1012525.9868100113 93.1 51 03 20 4650
628709.4780222571 1012524.220079206 46.8 51 03 24 4650
628717.4602037983 1012566.8088504389 66.5 51 03 32 4650
628708.6725684217 1012575.8700425951 156.2 51 03 36 4650
628703.553770273 1012602.2602280374 96.1 51 03 44 4650
628697.425436201 1012604.5735513737 114.0 51 03 48 4650
628724.4112166223 1012632.4726157193 115.6 51 03 52 4650
628769.1196370544 1012613.8525040714 109.3 51 03 56 4650
628770.6188257515 1012612.4087688524 101.5 51 04 00 4650
628765.1829348832 1012584.3033797906 99.7 51 04 08 4650
628766.9720854601 1012601.8031909944 155.2 51 04 12 4650
628780.4647240288 1012592.2044249972 122.9 51 04 16 4650
628765.5185680081 1012579.0960863644 70.5 51 04 20 4650
628765.9275427697 1012585.1130488947 75.8 51 04 24 4650
628764.0114352535 1012589.7291144644 75.7 51 04 28 4650
628755.8718116209 1012555.0132125255 87.6 51 04 40 4650
628765.2189335194 1012552.9978888388 84.9 51 04 44 4650
628747.8851213048 1012510.4450063207 102.7 51 04 48 4650
628743.2675882163 1012507.7428456778 93.5 51 04 52 4650
628739.6929357497 1012501.9920327864 81.1 51 04 56 4650
628743.9835418009 1012503.8527097146 98.0 51 05 00 4650
628711.7163135653 1012505.0193699836 87.6 51 05 16 4650
628685.265427732 1012528.8409972751 87.5 51 05 20 4650
628679.8890579087 1012543.2101457646 96.7 51 05 24 4650
628656.1903736542 1012565.5147191553 117.2 51 19 00 4650
628651.8900061045 1012563.2780428143 117.1 51 19 08 4650
628655.3176919691 1012566.916263985 119.1 51 19 12 4650
628649.4285003487 1012573.4103502415 119.3 51 19 16 4650
628650.720212959 1012568.1840517927 117.4 51 19 20 4650
628629.3232235219 1012558.5491589983 111.1 51 19 24 4650
628609.8322505916 1012554.1509774104 102.1 51 19 28 4650
628584.4313651731 1012501.7855031411 105.3 51 19 32 4650
628563.1858074751 1012489.4971925757 112.1 51 19 36 4650
628551.1714476619 1012497.3315329591 91.8 51 19 40 4650
628533.0384330658 1012501.1208289659 86.8 51 19 44 4650
628559.9409979365 1012487.0649128762 125.5 51 19 48 4650
628559.822344858 1012476.2386110837 112.6 51 19 52 4650
628547.4258996791 1012479.9138516544 116.7 51 20 00 4650
628694.4691463843 1012560.7626283275 93.5 51 21 00 4650
628760.1661078152 1012582.7389045866 84.4 51 21 12 4650
628756.2115625167 1012585.6674954175 76.3 51 21 16 4650
628783.9380030027 1012591.9613985475 90.6 51 21 20 4650
628781.4783881922 1012567.7581662334 94.3 51 21 24 4650
628757.3241822319 1012561.1994439217 129.8 51 21 28 4650
628757.2821925906 1012509.9669241541 93.9 51 21 32 4650
628732.5934747555 1012485.304301481 110.7 51 21 36 4650
628749.6086388075 1012473.8481608458 105.2 51 21 40 4650
628754.272407454 1012465.7245493276 97.4 51 21 44 4650
628760.6262305288 1012461.6647790734 100.8 51 21 48 4650
628758.6719060097 1012471.2679438686 100.1 51 21 52 4650
628750.2570234503 1012477.2119472831 100.4 51 21 56 4650
628774.3991393021 1012450.3750220276 105.4 51 22 04 4650
628746.3798576428 1012442.8637900301 97.5 51 22 08 4650
628765.5669144378 1012408.9888072953 93.2 51 22 12 4650
628761.4847603993 1012393.7263376247 85.5 51 22 16 4650
628739.048905968 1012406.137950289 92.5 51 22 20 4650
628697.4786981163 1012402.4751202383 119.1 51 22 24 4650
628673.8947747528 1012392.8552148616 94.2 51 22 28 4650
628661.2909390812 1012362.3048061784 109.6 51 22 32 4650
628649.1964363963 1012377.8685026898 108.4 51 22 36 4650
628607.902896584 1012383.7387866114 107.4 51 22 40 4650
628594.4705089931 1012371.4205812224 119.0 51 22 44 4650
628583.821337716 1012391.97621295 113.5 51 22 48 4650
628550.8307206335 1012406.0676250565 118.2 51 22 52 4650
628521.7510934656 1012444.1679235721 116.9 51 22 56 4650
628484.8148216736 1012451.7112040292 120.2 51 23 00 4650
628434.146924833 1012474.7908323617 127.7 51 23 08 4650
628445.9457198058 1012496.1049968164 127.0 51 23 12 4650
628457.4360886784 1012531.1744829648 129.2 51 23 16 4650
628470.8357333171 1012580.6257526838 128.4 51 23 20 4650
628458.1212445573 1012611.182306586 137.6 51 23 24 4650
628465.7190390348 1012636.8618598935 138.6 51 23 28 4650
628491.4861853431 1012630.6313825501 139.3 51 23 32 4650
628502.4388114708 1012645.1641887176 138.8 51 23 36 4650
628523.393625499 1012604.8811500772 134.4 51 23 40 4650
628549.3103885201 1012616.8639450307 113.5 51 23 44 4650
628577.1264019413 1012609.1252155339 115.5 51 23 48 4650
628592.0147719957 1012599.4645807783 112.7 51 23 52 4650
628632.2634341273 1012634.3512155482 108.4 51 23 56 4650
628666.4979161405 1012646.5823148915 127.6 52 00 00 4650
628691.6738102485 1012632.9521434003 103.7 52 00 08 4650
628719.6719007476 1012623.3010456149 84.7 52 00 12 4650
628773.6158231634 1012603.1960348836 97.3 52 00 16 4650
628769.0025648474 1012605.9344908494 93.6 52 00 20 4650
628776.1124751475 1012605.9023524752 96.9 52 00 24 4650
628771.7283904226 1012605.7553784689 98.5 52 00 28 4650
628783.9431116323 1012610.6386233467 105.0 52 00 32 4650
628768.3071760708 1012606.8832269774 91.3 52 00 36 4650
628754.1826755514 1012601.2971061768 89.0 52 00 40 4650
628765.3361445729 1012574.373664492 92.6 52 00 44 4650
628759.5507478864 1012555.7329116894 83.9 52 00 48 4650
628751.6002938999 1012533.789785033 97.5 52 00 52 4650
628740.150826507 1012526.741648845 97.0 52 00 56 4650
628739.2607890565 1012496.339914717 98.1 52 01 00 4650
628801.8601535044 1012440.3462383846 78.4 52 01 08 4650
628800.2525877297 1012444.6979126047 80.8 52 01 12 4650
628818.9580194863 1012437.2503504759 64.4 52 01 16 4650
628799.0594471317 1012439.894792032 81.8 52 01 20 4650
628791.5471162844 1012448.7610777067 80.0 52 01 24 4650
628798.1959215169 1012448.605798547 78.7 52 01 28 4650
628801.0661862848 1012441.1951300002 80.2 52 01 32 4650
628768.9885337995 1012448.2453005052 52.8 52 01 36 4650
628775.8131365321 1012437.9723876646 85.4 52 01 40 4650
628730.8981771271 1012422.0793799022 90.6 52 01 44 4650
628688.424020287 1012402.412484863 92.1 52 01 48 4650
628648.6106464607 1012443.0985639943 100.6 52 01 56 4650
628641.093713859 1012453.3913588632 105.4 52 02 00 4650
628684.5875479967 1012554.8033085272 93.2 52 03 00 4650
628718.109219657 1012532.8403473509 117.3 52 03 12 4650
628706.663515106 1012531.3876540348 92.7 52 03 16 4650
628716.7427596602 1012534.0191212044 142.9 52 03 20 4650
628715.6105676412 1012527.369492402 103.7 52 03 24 4650
628723.1654992601 1012532.414478793 117.9 52 03 28 4650
628693.7422717339 1012517.3570550384 36.0 52 03 32 4650
628724.6828040757 1012528.7812883233 132.2 52 03 36 4650
628729.0548642655 1012529.2489030043 144.9 52 03 40 4650
628729.7057326761 1012531.8496852816 135.7 52 03 44 4650
628720.5022451463 1012520.1202134562 114.3 52 03 48 4650
628717.053565887 1012519.5560818639 117.2 52 03 52 4650
628742.0279067405 1012507.1084959861 160.2 52 04 00 4650
628655.1057257983 1012557.7594337644 90.4 52 05 24 4650
628647.8574850365 1012569.9108671058 60.8 52 05 28 4650
628644.0610912348 1012561.3837491404 98.5 52 05 32 4650
628658.3080276493 1012556.365467794 104.8 52 05 36 4650
628662.5535277285 1012551.8233257736 102.6 52 05 40 4650
628689.3584310546 1012561.033508921 117.4 52 05 44 4650
628652.2125440151 1012572.2251279874 116.4 52 18 56 4650
628655.0322551674 1012563.4541372899 119.0 52 19 00 4650
628652.2320801239 1012559.4640970748 115.5 52 19 12 4650
628652.2367543812 1012564.7830779889 118.1 52 19 16 4650
628651.1287062148 1012560.8427752323 120.6 52 19 20 4650
628648.0694372542 1012568.9384402263 109.4 52 19 24 4650
628648.6325965447 1012574.8563775027 107.7 52 19 28 4650
628641.5651470089 1012565.2128047381 116.8 52 19 32 4650
628644.8480543954 1012572.8204264092 117.4 52 19 36 4650
628648.8683628422 1012566.5635389587 111.6 52 19 40 4650
628643.9730176961 1012571.5680100344 112.8 52 19 44 4650
628645.713453232 1012563.5233453576 120.3 52 19 48 4650
628640.5387132085 1012563.2079424558 108.3 52 19 52 4650
628712.3810050222 1012533.7616460864 96.8 52 20 00 4650
628742.1053125615 1012500.2084663035 109.3 52 20 08 4650
628747.9559590843 1012512.3140632525 105.9 52 20 12 4650
628744.0019484622 1012515.076785575 104.2 52 20 16 4650
628755.5686973596 1012509.729124623 103.5 52 20 20 4650
628749.1913833144 1012510.8805263805 102.7 52 20 24 4650
628747.2572296718 1012504.1619365492 112.2 52 20 28 4650
628754.8770253921 1012499.4096243263 98.8 52 20 32 4650
628747.7251305798 1012502.2061682786 108.6 52 20 36 4650
628743.3144658869 1012496.7180289906 107.7 52 21 00 4650
628581.9775347668 1012499.4221418242 106.3 52 21 56 4650
628564.8695473665 1012485.3669225948 117.9 52 22 00 4650
628553.6461630531 1012493.2701824929 133.5 52 22 12 4650
628556.6423583294 1012484.2896562798 116.6 52 23 00 4650
628667.9075843378 1012544.3101507867 112.4 52 23 20 4650
628748.6782401913 1012543.6109622709 82.8 52 23 44 4650
628752.2905625803 1012531.0385543575 57.5 52 23 48 4650
628777.0228211777 1012569.3139137862 84.7 53 00 00 4650
628755.2557551624 1012511.3425948606 91.8 53 00 08 4650
628753.920982079 1012506.1630379352 54.9 53 00 12 4650
628753.5009333293 1012483.2934285623 96.7 53 00 16 4650
628746.2021926757 1012477.1876893938 99.3 53 00 20 4650
628760.762990833 1012473.6633107153 108.6 53 00 24 4650
628747.4840536605 1012461.4892981763 108.2 53 00 28 4650
628776.533403029 1012476.6340065292 103.8 53 00 32 4650
628760.8909768902 1012478.2307409466 92.2 53 00 36 4650
628769.6709348601 1012485.0379688896 116.0 53 00 40 4650
628778.4038464384 1012479.2940515523 111.7 53 00 44 4650
628753.152972819 1012485.5370990168 101.3 53 00 48 4650
628755.2403942976 1012478.9311244657 104.4 53 00 52 4650
628731.6712797215 1012485.0359043605 113.8 53 01 00 4650
628795.1559141265 1012653.226888188 106.4 53 01 48 4650
628792.8485109955 1012670.0166972596 113.8 53 01 56 4650
628808.3062178013 1012667.7558944223 107.2 53 02 00 4650
628800.4049027031 1012657.7335924263 103.5 53 02 08 4650
628783.6102924781 1012645.3490593971 113.3 53 02 12 4650
628777.4415993958 1012643.1836896632 104.3 53 02 16 4650
628778.6912454421 1012661.0024322227 111.8 53 02 20 4650
628758.6928327479 1012657.221771984 111.8 53 02 24 4650
628747.6928559605 1012647.1341022052 113.8 53 02 28 4650
628759.4887329558 1012652.4030122852 127.3 53 02 32 4650
628742.3231284419 1012642.5827802736 104.5 53 02 36 4650
628713.8048475345 1012636.4964297134 107.9 53 02 40 4650
628703.3518195754 1012640.6755593639 117.3 53 02 44 4650
628674.5619747142 1012640.3717624515 105.9 53 02 48 4650
628673.8804429255 1012620.177377598 105.5 53 02 52 4650
628656.0709701721 1012632.6151309706 133.2 53 02 56 4650
628659.9556124067 1012630.902699749 162.3 53 03 00 4650
628646.1448059864 1012616.714405335 118.8 53 03 08 4650
628644.1710746676 1012615.4031238519 113.5 53 03 12 4650
628557.4159914163 1012638.4315473422 122.1 53 03 24 4650
628539.4384314022 1012651.8861496935 140.9 53 03 28 4650
628527.0785053992 1012637.5809780153 129.2 53 03 32 4650
628493.0041962189 1012620.0094469935 122.1 53 03 36 4650
628461.2727205863 1012608.5164755579 114.7 53 03 40 4650
628454.7260571754 1012594.1528097241 128.1 53 03 44 4650
628442.9391478319 1012586.1084357849 140.1 53 03 48 4650
628479.1647917115 1012574.0179309029 121.9 53 03 52 4650
628454.3923457111 1012524.3527863863 119.7 53 03 56 4650
628433.4594114362 1012527.458484997 109.2 53 04 00 4650
628472.5102992504 1012471.0672003513 179.0 53 04 08 4650
628458.4876437247 1012444.2499122624 113.9 53 04 12 4650
628508.4431538166 1012444.2794958042 113.9 53 04 16 4650
628507.6223297872 1012446.6322115682 104.1 53 04 20 4650
628518.7152907422 1012455.1940779493 112.7 53 04 24 4650
628532.541147298 1012481.690067778 116.8 53 04 28 4650
628552.1905684602 1012484.6843370734 120.1 53 04 32 4650
628557.9156146877 1012474.5958089547 117.1 53 04 36 4650
628561.2644647214 1012475.4471129257 116.0 53 04 40 4650
628562.7749616927 1012473.9038837629 111.9 53 04 44 4650
628545.48526844 1012465.0343507029 52.8 53 04 48 4650
628554.8898441193 1012465.6288830652 85.9 53 04 52 4650
628561.6380428424 1012465.3190738009 110.3 53 05 00 4650
628564.0316994421 1012476.0532475488 104.8 53 05 08 4650
628566.9945036777 1012477.3456226266 125.4 53 05 12 4650
628607.6185294385 1012559.0535920747 101.5 53 05 28 4650
628656.4517133734 1012562.8726736841 88.0 53 05 32 4650
628654.0063975302 1012561.2723461989 131.1 53 19 03 4650
628655.4818954405 1012563.7320536022 124.3 53 19 08 4650
628653.5130706661 1012564.2896137504 117.9 53 19 12 4650
628653.8773574776 1012557.0256003345 117.1 53 19 16 4650
628644.2347337368 1012572.1881172636 114.6 53 19 20 4650
628689.7592975711 1012545.9072750276 98.3 53 19 24 4650
628738.0212340328 1012526.0491115937 107.6 53 19 28 4650
628736.1739874217 1012509.5111738469 126.4 53 19 32 4650
628747.2012617483 1012538.231895912 103.1 53 19 36 4650
628772.5956037128 1012531.7902694917 102.7 53 19 40 4650
628773.2899862947 1012480.5269710775 97.9 53 19 44 4650
628775.6996403448 1012435.7050985078 103.8 53 19 48 4650
628762.5037430444 1012438.5261958613 92.1 53 19 52 4650
628745.8174126726 1012443.4812152234 107.8 53 19 56 4650
628731.4488298006 1012418.3324616938 101.4 53 20 00 4650
628632.793123842 1012397.1668979441 116.4 53 21 16 4650
628622.0782973305 1012424.3903655472 106.4 53 21 20 4650
628632.288750951 1012450.8856982267 116.7 53 21 24 4650
628647.0999494689 1012461.593918361 119.7 53 21 28 4650
628674.8294649143 1012551.409882309 108.6 53 21 36 4650
628689.7912425362 1012542.8442736382 95.4 53 21 56 4650
628700.3440714751 1012551.9020587039 114.4 53 22 00 4650
628697.8366893844 1012498.4609557576 150.6 53 22 24 4650
628734.0014721345 1012505.1250773302 116.2 53 22 28 4650
628755.926397775 1012470.7392730342 125.9 53 22 32 4650
628746.1016376351 1012477.6960366701 109.4 53 22 36 4650
628748.8807237755 1012478.0368277333 108.8 53 22 40 4650
628756.1707702159 1012480.0620840058 108.1 53 22 44 4650
628757.9538267845 1012475.8105033458 110.7 53 22 48 4650
628776.50239511 1012465.9075051646 120.5 53 22 52 4650
628764.751548782 1012467.0414095522 114.3 53 22 56 4650
628765.8798700934 1012454.6267869914 130.5 53 23 00 4650
628758.4095155831 1012474.2306722604 84.6 54 00 00 4650
628800.7601920903 1012440.6744006855 78.2 54 00 12 4650
628796.339407374 1012438.2935614596 76.5 54 00 16 4650
628785.5898668732 1012422.1468410568 78.4 54 00 20 4650
628771.1083495739 1012397.937645673 84.6 54 00 24 4650
628765.4926836167 1012391.284477177 81.8 54 00 28 4650
628727.8677116658 1012431.4468218167 115.3 54 00 32 4650
628706.596928313 1012437.039367306 92.7 54 00 36 4650
628682.8552273355 1012428.6353355716 102.5 54 00 40 4650
628687.0526083681 1012432.1323064874 122.8 54 00 44 4650
628675.4447598266 1012426.4659469685 99.6 54 01 00 4650
628654.738694561 1012451.0140091822 114.5 54 01 28 4650
628652.3885655141 1012450.5529808543 107.1 54 01 32 4650
628645.8960720173 1012453.3295719783 102.5 54 01 36 4650
628686.9752796204 1012486.2948316698 101.6 54 01 52 4650
628702.846171445 1012525.9235666972 103.3 54 02 12 4650
628722.0927736374 1012531.1282426338 108.3 54 02 16 4650
628742.4679000594 1012510.3499643902 100.1 54 02 20 4650
628753.1837882148 1012503.0754157683 104.3 54 02 24 4650
628752.552180063 1012508.0605825345 109.0 54 02 28 4650
628758.1717721605 1012506.751900335 103.2 54 03 00 4650
628685.0008173905 1012603.4051875764 102.8 54 03 44 4650
628699.8232771871 1012600.5009004291 93.2 54 03 48 4650
628699.1143102434 1012602.245779651 108.2 54 03 52 4650
628695.4815536453 1012607.5971562272 100.1 54 03 56 4650
628704.0063129573 1012598.2697113134 95.6 54 04 00 4650
628741.9949085204 1012628.6373915721 80.5 54 04 08 4650
628767.4895851224 1012611.6134508523 97.9 54 04 12 4650
628764.5421349596 1012605.6103387218 92.0 54 04 16 4650
628769.7638205294 1012608.3808198066 92.7 54 04 20 4650
628760.2406168099 1012617.2295010672 94.4 54 04 24 4650
628754.8222653376 1012620.8610466605 96.8 54 04 28 4650
628719.1736272466 1012624.4605287741 95.1 54 04 32 4650
628712.7807230393 1012633.7838511141 85.1 54 04 36 4650
628707.2243119335 1012635.9442199821 105.8 54 04 40 4650
628671.2962071794 1012627.5005168482 78.7 54 04 44 4650
628628.3883795394 1012629.7384242262 100.0 54 04 48 4650
628608.8009497109 1012617.8425061159 84.8 54 04 52 4650
628617.1521704504 1012577.3968759455 106.6 54 04 56 4650
628628.6556466749 1012577.9761395514 90.2 54 05 00 4650
628613.54830659 1012580.625190027 118.3 54 05 08 4650
628645.5002273992 1012541.2404986913 89.1 54 05 24 4650
628663.2532875639 1012546.1527759935 106.7 54 05 28 4650
628705.1363135861 1012527.9325434203 97.1 54 05 32 4650
628753.0180416233 1012553.9865721536 95.4 54 05 36 4650
628763.1868525087 1012559.4824034167 108.0 54 05 40 4650
628761.8973701462 1012553.8938418619 114.4 54 05 44 4650
628726.057107667 1012535.3211242184 99.7 54 05 48 4650
628652.9628406748 1012564.5311028417 107.6 54 18 56 4650
628652.5241555258 1012557.5077563288 114.7 54 19 00 4650
628645.6304872392 1012572.1373669646 110.7 54 19 08 4650
628646.1443693748 1012572.9352247657 107.2 54 19 12 4650
628637.7890745362 1012570.7074755718 117.2 54 19 16 4650
628646.9774497063 1012563.4389920392 120.4 54 19 20 4650
628649.2883253155 1012575.9643247426 122.1 54 19 24 4650
628642.8017877687 1012570.1598162162 129.7 54 19 28 4650
628636.7976748265 1012557.932098777 114.0 54 19 32 4650
628635.9559458075 1012559.9530004925 123.6 54 19 36 4650
628579.2665515271 1012505.1746178035 120.1 54 19 44 4650
628582.4588860318 1012429.1050091769 99.8 54 19 48 4650
628612.8344057266 1012364.2372074565 104.3 54 19 52 4650
628603.9842939404 1012395.8899974809 105.5 54 19 56 4650
628615.7802265275 1012384.2730745971 100.9 54 20 00 4650
628681.838728796 1012410.065409612 127.6 54 20 08 4650
628697.9706890145 1012389.7377420852 106.7 54 20 12 4650
628714.5149752778 1012431.8125168614 100.3 54 20 16 4650
628756.2479783214 1012439.4678889278 91.0 54 20 20 4650
628735.956056905 1012488.6879803702 86.8 54 20 24 4650
628743.8551894904 1012523.0271132423 97.2 54 20 28 4650
628750.624812797 1012519.5105452253 133.2 54 20 32 4650
628781.9519986638 1012553.9259685735 102.1 54 20 36 4650
628767.6437439141 1012571.0195021715 122.4 54 20 40 4650
628754.1197161 1012563.2568839041 142.0 54 20 44 4650
628681.8982196663 1012564.0281060771 98.4 54 20 48 4650
628682.3396490327 1012556.6979944136 129.9 54 20 52 4650
628654.1913360043 1012561.8479711658 108.4 54 20 56 4650
628593.8938562865 1012555.5367059238 146.1 54 21 00 4650
628563.4336861325 1012494.3746368395 135.9 54 21 08 4650
628562.6714697729 1012495.5996123358 143.0 54 21 12 4650
628552.7312182232 1012494.1518594667 124.8 54 21 16 4650
628559.428791916 1012489.1311195284 128.1 54 22 00 4650
628650.1389762134 1012571.2010333688 84.8 54 23 00 4650
628670.1282168227 1012544.0409221493 69.7 54 23 16 4650
628725.1788298265 1012501.3034171421 58.2 54 23 40 4650
628736.1083057593 1012485.802300526 89.8 54 23 56 4650
628750.1278842269 1012472.9983740955 90.0 55 00 00 4650
628758.1174984105 1012459.2901689644 74.2 55 00 08 4650
628674.3863124436 1012576.1565612709 85.4 55 00 20 4650
628646.7533990527 1012608.6660586676 104.3 55 00 24 4650
628638.6662132454 1012601.7173544755 98.5 55 00 28 4650
628628.3269224113 1012597.9571294037 97.8 55 00 32 4650
628635.0209295454 1012614.3007186325 94.4 55 00 36 4650
628646.0407215954 1012631.8194871866 110.6 55 00 40 4650
628626.7015783235 1012621.2955764921 97.3 55 00 44 4650
628600.2573650436 1012619.4513257812 120.4 55 00 48 4650
628585.4380298579 1012547.0497354921 101.4 55 00 52 4650
628560.8639843658 1012487.090029408 108.8 55 00 56 4650
628557.2082860856 1012482.5996008841 120.8 55 01 00 4650
628551.7717820485 1012481.6751626785 125.0 55 01 08 4650
628554.5970056284 1012484.7253333988 131.7 55 01 12 4650
628550.6933350409 1012482.1471572256 126.1 55 01 16 4650
628551.1293187456 1012486.6271196769 125.0 55 01 20 4650
628551.4204352418 1012491.725866938 122.6 55 01 28 4650
628550.8627842861 1012487.4887880057 118.8 55 01 32 4650
628552.846912586 1012485.6042957982 127.4 55 01 40 4650
628553.708027881 1012484.3796415966 123.2 55 01 44 4650
628547.3384473346 1012483.1536014149 123.4 55 01 48 4650
628563.6974662599 1012467.3162327957 126.2 55 01 52 4650
628540.481314084 1012462.8838671396 117.5 55 02 00 4650
628534.0605793465 1012467.2530801474 117.9 55 02 08 4650
628539.7791113852 1012476.0739414454 122.1 55 02 20 4650
628547.6789386517 1012476.4424192269 140.8 55 02 24 4650
628556.0772972179 1012472.190217872 127.6 55 02 28 4650
628548.8191226623 1012473.8806374392 119.8 55 02 32 4650
628553.7387298269 1012485.0764040077 128.6 55 02 36 4650
628555.431496676 1012488.3108822117 121.6 55 02 40 4650
628554.842944486 1012490.1999105407 116.6 55 02 44 4650
628585.7300695986 1012534.9641399365 112.1 55 02 48 4650
628640.484829827 1012573.0163376927 117.0 55 02 52 4650
628661.5966210287 1012555.4693991413 125.6 55 02 56 4650
628737.9732231528 1012483.4087538184 116.3 55 03 36 4650
628768.34131486 1012464.7751191591 109.0 55 03 40 4650
628769.570624447 1012407.8407365561 91.8 55 03 44 4650
628753.0538964458 1012374.1923279268 81.8 55 03 52 4650
628759.2887013947 1012372.9409368125 84.5 55 03 56 4650
628765.386807791 1012369.7981590362 85.8 55 04 00 4650
628805.7783074252 1012424.9771177286 88.0 55 05 44 4650
628759.7512486526 1012440.1427822423 141.0 55 05 48 4650
628769.6168510049 1012532.0238496498 101.4 55 05 52 4650
628761.1926918215 1012557.695549264 104.6 55 05 56 4650
628701.2978382419 1012545.8453005342 97.2 55 06 00 4650
628641.8370605533 1012566.0762241998 105.9 55 19 08 4650
628658.6822935083 1012556.1676388572 100.0 55 19 12 4650
628685.5894875068 1012611.6122447199 99.7 55 19 16 4650
628723.6069695596 1012639.8568377588 102.4 55 19 20 4650
628787.283106122 1012654.6940963737 93.2 55 19 24 4650
628794.1957148181 1012654.506505742 103.7 55 19 28 4650
628791.9371502239 1012656.3016273895 87.6 55 19 32 4650
628798.9863748563 1012651.2820725297 100.3 55 19 36 4650
628800.345715267 1012628.6725904454 101.8 55 19 40 4650
628788.9890512695 1012566.1460194783 99.7 55 19 44 4650
628771.6092148551 1012571.4857983346 92.2 55 19 48 4650
628779.6486759784 1012572.8389547999 98.4 55 19 52 4650
628769.7030373758 1012569.6771138166 83.3 55 19 56 4650
628757.3678128594 1012530.9223864075 109.4 55 20 00 4650
628740.2919693388 1012520.5163733836 100.7 55 20 08 4650
628747.6362762445 1012512.6226505818 109.5 55 20 12 4650
628749.6557654879 1012513.3811787 122.6 55 20 16 4650
628759.3243959664 1012517.2498318949 114.0 55 21 00 4650
628680.8621446586 1012564.9867931226 112.0 55 21 28 4650
628747.637310917 1012508.9292338794 113.8 55 21 36 4650
628750.6613790635 1012504.9028559896 109.5 55 21 40 4650
628754.263543203 1012492.0760775828 144.3 55 21 44 4650
628746.1895984769 1012508.0619857986 117.0 55 21 48 4650
628753.3129448442 1012500.5324631031 123.1 55 22 00 4650
628686.7178648344 1012565.4039405828 99.8 55 22 41 4650
628582.0651938436 1012611.0322156094 103.4 55 22 52 4650
628561.4364478008 1012615.2225286276 145.5 55 22 56 4650
628544.4290139303 1012627.7182261263 94.7 55 23 00 4650
628485.8187538573 1012538.4434133553 101.2 55 23 16 4650
628469.7755273205 1012514.5941897596 99.1 55 23 20 4650
628462.268666715 1012484.5912051299 96.7 55 23 24 4650
628459.8757492206 1012449.9383011431 111.1 55 23 28 4650
628451.2929217471 1012463.6225104266 117.0 55 23 32 4650
628450.648431128 1012431.9830991974 105.8 55 23 36 4650
628464.5877103701 1012460.7905762974 97.0 55 23 40 4650
628465.6347101259 1012497.0646551525 117.4 55 23 44 4650
628439.1951599921 1012476.841922551 103.3 55 23 48 4650
628454.7236827736 1012476.4721454296 85.8 55 23 52 4650
628462.2936654659 1012531.0243893422 83.8 55 23 56 4650
628508.4143497137 1012527.547159869 97.6 56 00 00 4650
628513.0379152771 1012460.7599883188 125.3 56 00 08 4650
628548.581733765 1012492.8224538274 123.9 56 00 12 4650
628560.3199621767 1012488.8022722478 110.7 56 00 36 4650
628558.2279533617 1012479.9268461945 95.8 56 00 40 4650
628551.8699623137 1012481.8966445337 84.0 56 00 44 4650
628556.5484554307 1012482.7522700245 117.6 56 01 00 4650
628613.2678332711 1012528.3303370352 94.4 56 01 32 4650
628629.9319392047 1012553.8403712866 102.6 56 01 36 4650
628727.2524471829 1012505.6891911121 94.0 56 01 56 4650
628750.171407452 1012473.1312135044 90.5 56 02 00 4650
628729.6399222699 1012491.2992596689 81.9 56 02 08 4650
628748.9164383969 1012507.5732462682 104.0 56 02 12 4650
628745.062108793 1012506.7202800255 100.0 56 02 16 4650
628739.847924675 1012511.767936263 95.9 56 02 20 4650
628777.2774354429 1012568.7397193415 101.0 56 02 32 4650
628767.822059976 1012593.8772686189 107.1 56 02 36 4650
628771.8407610749 1012584.7452683661 84.0 56 02 40 4650
628737.9895921805 1012586.4043576177 103.7 56 02 44 4650
628770.2207755318 1012609.786692238 104.9 56 02 48 4650
628771.1762638962 1012613.3284101182 98.1 56 02 52 4650
628764.3173845399 1012640.8850899577 105.7 56 02 56 4650
628790.8729098284 1012665.9076903303 98.1 56 03 00 4650
628722.2336073881 1012633.0294925123 55.6 56 03 16 4650
628705.6088488202 1012602.2116258204 107.8 56 03 40 4650
628698.4689007149 1012604.720703141 98.0 56 03 44 4650
628705.9010106659 1012603.6059027138 99.0 56 03 48 4650
628702.3853252964 1012583.1147801435 88.1 56 03 52 4650
628704.17118023 1012588.1299309268 101.3 56 03 56 4650
628698.1779137583 1012599.5887779433 81.3 56 04 00 4650
628690.7379059236 1012589.6232955592 90.1 56 04 08 4650
628693.8467779688 1012586.5481909253 106.2 56 04 12 4650
628717.2626371633 1012549.8560740321 81.1 56 04 16 4650
628721.0768747423 1012532.6399016716 98.3 56 04 20 4650
628723.3273076375 1012533.3438894834 102.5 56 04 24 4650
628715.602061502 1012536.7357117413 103.5 56 04 28 4650
628721.6952338901 1012531.7240884396 72.3 56 04 32 4650
628713.5286728784 1012535.6563237169 82.6 56 04 36 4650
628705.9964594913 1012516.8772001963 67.3 56 04 52 4650
628710.0319249197 1012532.9799308698 96.3 56 04 56 4650
628714.7001418639 1012533.6143799991 100.5 56 05 00 4650
628662.2642420944 1012512.3890539553 35.9 56 05 08 4650
628752.6925351202 1012559.4592938686 91.4 56 05 16 4650
628673.6516359479 1012548.6525727974 102.1 56 05 28 4650
628669.1455745042 1012545.4642253028 92.7 56 05 36 4650
628698.8946944398 1012558.3000064107 142.6 56 05 40 4650
628649.4947947094 1012566.5434605242 114.2 56 18 56 4650
628644.9154604875 1012579.1237858123 95.8 56 19 00 4650
628670.0319426965 1012489.1922288002 108.9 56 19 08 4650
628624.791181821 1012499.1522088733 107.2 56 19 12 4650
628579.2126624105 1012501.4699664402 101.9 56 19 16 4650
628572.2869938128 1012492.1475572154 113.6 56 19 20 4650
628561.4074778996 1012482.1598669727 115.2 56 19 24 4650
628561.5830573998 1012478.8540547397 120.6 56 19 28 4650
628576.2482850234 1012446.5787924563 168.4 56 19 32 4650
628550.8973248735 1012476.8620309463 124.9 56 20 00 4650
628507.9788742763 1012590.5439430148 97.6 56 20 36 4650
628631.9432143394 1012607.7995788925 117.3 56 20 56 4650
628662.6648490466 1012588.5367166887 108.6 56 21 00 4650
628763.8004281131 1012651.1564235731 78.5 56 21 16 4650
628782.6232413691 1012664.9961702648 117.1 56 21 20 4650
628790.3243368161 1012665.6405081151 89.7 56 21 24 4650
628761.2689495077 1012635.523021348 100.3 56 21 44 4650
628771.5647776157 1012622.253598582 73.4 56 21 48 4650
628733.2165623653 1012594.3396251564 120.6 56 21 52 4650
628770.2123540833 1012595.4995411448 38.6 56 21 56 4650
628750.9699865428 1012568.7535852055 98.4 56 22 00 4650
628632.8729597764 1012626.0153603776 102.2 56 22 20 4650
628644.9418823431 1012631.8048542782 103.7 56 22 24 4650
628652.3597058612 1012628.3235559503 108.7 56 22 28 4650
628637.4967975242 1012623.398563995 110.7 56 22 32 4650
628633.6380703406 1012640.7915249016 115.4 56 22 36 4650
628608.7785566766 1012614.5913402748 111.4 56 22 40 4650
628560.4657466831 1012623.1148832196 119.3 56 22 44 4650
628527.1446160433 1012651.0500034078 111.9 56 22 48 4650
628508.3202689353 1012644.4202904388 119.8 56 22 52 4650
628486.8950332182 1012636.7205553052 114.2 56 22 56 4650
628482.5625483396 1012620.6942988056 116.2 56 23 00 4650
628439.2476974523 1012464.0478337883 136.2 56 23 28 4650
628545.611768761 1012497.1144157221 103.6 56 23 40 4650
628554.1424494494 1012482.578577356 98.7 56 23 44 4650
628548.1912786149 1012477.7157701604 109.3 56 23 48 4650
628544.9741144406 1012476.9201859894 107.2 56 23 52 4650
628544.8754039884 1012473.4807847424 104.5 56 23 56 4650
628552.8587308973 1012471.8258958727 107.8 57 00 00 4650
628547.4717513433 1012469.187608287 99.0 57 00 08 4650
628552.7030091501 1012475.7842026514 107.2 57 00 12 4650
628556.2149657237 1012477.1668269191 111.0 57 00 16 4650
628554.7034725765 1012475.6358910268 113.8 57 00 20 4650
628550.6757519285 1012477.4142175941 109.5 57 00 24 4650
628550.3471569519 1012480.4651952634 123.9 57 00 28 4650
628617.1985838773 1012566.5047594343 100.9 57 01 00 4650
628635.4856414504 1012569.4061805647 101.4 57 01 24 4650
628658.3925331405 1012567.5455232536 125.8 57 01 32 4650
628647.7529588583 1012561.5063401997 117.4 57 01 36 4650
628641.8717894361 1012565.5344882897 105.2 57 01 40 4650
628654.8428226471 1012557.5042412432 116.5 57 01 44 4650
628657.4249685238 1012557.5789904499 106.1 57 01 48 4650
628654.3558990918 1012558.5531805572 99.8 57 01 52 4650
628664.6841787399 1012555.5679093881 92.8 57 01 56 4650
628706.2048399949 1012523.7560429676 101.3 57 02 12 4650
628731.9548898995 1012482.305466119 97.0 57 02 16 4650
628758.2206451762 1012471.4876376471 87.6 57 02 20 4650
628761.0882025195 1012437.902331463 84.6 57 02 24 4650
628790.9511026203 1012436.0643863232 80.6 57 02 28 4650
628805.0204244001 1012438.3660638795 75.3 57 02 32 4650
628799.4272858066 1012451.794554374 133.0 57 02 36 4650
628798.9446729393 1012448.1437947426 96.0 57 02 40 4650
628800.1854609549 1012441.6898784447 77.7 57 02 44 4650
628803.3492607663 1012438.6260170591 99.0 57 02 48 4650
628801.7775366275 1012438.7204219531 79.3 57 02 52 4650
628798.7218662471 1012445.6992190373 121.1 57 02 56 4650
628776.8003021652 1012492.5364878261 75.8 57 03 05 4650
628762.0195608468 1012499.4881686046 71.5 57 03 08 4650
628752.1580866403 1012504.2221235669 113.5 57 03 12 4650
628750.4331252396 1012500.7553089256 87.1 57 03 16 4650
628749.2070519489 1012509.4430186722 98.8 57 03 20 4650
628752.8304188962 1012503.6050562831 106.2 57 03 24 4650
628748.466158068 1012497.3651135892 107.4 57 03 28 4650
628752.7105590889 1012506.6677719867 111.8 57 03 32 4650
628756.029705308 1012503.1399715411 115.5 57 03 40 4650
628756.5814129413 1012502.4451045973 111.3 57 03 44 4650
628746.7594676513 1012508.5393411204 93.6 57 04 00 4650
628699.5869640708 1012561.6860508855 99.3 57 04 20 4650
628678.1753712941 1012556.5406886154 96.1 57 04 24 4650
628674.5635801319 1012585.8440701697 107.6 57 04 28 4650
628657.2707846751 1012591.4606329236 109.3 57 04 32 4650
628645.9492602408 1012605.88784933 109.4 57 04 36 4650
628653.4492872708 1012621.0508439072 115.9 57 04 40 4650
628645.2470903024 1012619.055810762 103.4 57 04 44 4650
628656.9095062849 1012618.0653452121 103.7 57 04 52 4650
628681.2079813537 1012607.2963695313 99.2 57 04 56 4650
628692.4273950283 1012597.2367955443 80.6 57 05 00 4650
628724.4867414053 1012599.1436165255 145.8 57 05 28 4650
628708.5319676596 1012602.1879652127 142.6 57 05 32 4650
628686.2027259835 1012592.0081541586 115.6 57 05 36 4650
628676.5564041459 1012594.7965912018 91.3 57 05 40 4650
628687.6255789093 1012566.7449295273 134.5 57 05 44 4650
628649.8165457168 1012562.2207742067 86.0 57 05 48 4650
628675.0080224426 1012567.4558267046 118.1 57 05 52 4650
628670.7552555945 1012550.5893819411 97.5 57 05 56 4650
628650.4706199494 1012563.8373905265 114.3 57 18 52 4650
628655.2267434048 1012564.4721189687 119.9 57 18 56 4650
628633.173933653 1012557.1351838373 111.0 57 19 00 4650
628569.1322679489 1012607.3520382529 114.6 57 19 08 4650
628529.291881569 1012622.637571263 116.8 57 19 12 4650
628485.218849173 1012618.2369652739 133.4 57 19 16 4650
628488.7922639367 1012604.0831047896 113.0 57 19 20 4650
628472.3730062206 1012584.3683961825 121.9 57 19 24 4650
628450.1350894658 1012532.5219775075 115.3 57 19 28 4650
628468.7399969866 1012468.0250247545 119.2 57 19 32 4650
628458.2966295552 1012452.3106709212 119.1 57 19 36 4650
628507.6359468347 1012442.4412226898 109.6 57 19 40 4650
628559.2606211472 1012452.9704652221 100.6 57 19 44 4650
628584.4425865262 1012417.2129021805 110.3 57 19 48 4650
628614.4851693545 1012373.6309344157 111.2 57 19 52 4650
628600.8230174197 1012381.2829769547 106.3 57 19 56 4650
628637.000773673 1012387.3720124858 104.3 57 20 00 4650
628668.7358057104 1012374.1722913292 110.8 57 20 08 4650
628664.0324434052 1012401.2273189598 106.0 57 20 12 4650
628634.4598191195 1012445.5848522928 106.4 57 20 16 4650
628641.7477888337 1012448.2514512767 117.1 57 20 20 4650
628647.3888934879 1012447.0865785525 109.3 57 20 24 4650
628646.9906708945 1012447.8925274845 118.8 57 20 28 4650
628648.9650402543 1012445.6320307837 99.9 57 20 48 4650
628644.0485318011 1012450.3820974219 99.3 57 20 52 4650
628661.8173182544 1012450.4730704572 100.7 57 20 56 4650
628710.1755867113 1012441.5627348919 109.8 57 21 00 4650
628743.3680656384 1012456.6213748612 105.1 57 21 08 4650
628710.3231589214 1012450.2438567616 114.5 57 21 12 4650
628677.414545563 1012483.0347469157 116.4 57 21 16 4650
628683.1586172656 1012514.3922089989 110.4 57 21 20 4650
628672.3963761749 1012593.3344386043 56.9 57 21 40 4650
628663.5087627162 1012575.7120184919 88.6 57 21 44 4650
628688.470720463 1012570.4300410127 64.2 57 21 48 4650
628659.6890764275 1012577.7232311749 73.7 57 21 52 4650
628654.4495124222 1012553.4225077644 127.0 57 21 56 4650
628656.9271085532 1012561.9895690024 104.9 57 22 00 4650
628647.9678025752 1012576.5350522414 96.5 57 22 08 4650
628650.544248743 1012568.2277119186 112.4 57 22 12 4650
628652.8087075482 1012571.3755905848 107.6 57 22 16 4650
628653.0888035804 1012573.1015717698 120.5 57 22 20 4650
628646.2047794394 1012578.0111078284 118.8 57 22 24 4650
628641.9853981204 1012581.2816498628 111.3 57 22 28 4650
628651.4973169238 1012582.6506280176 105.7 57 22 32 4650
628626.57055947 1012631.1700695236 103.2 57 22 36 4650
628644.7516033574 1012629.4930838174 106.4 57 22 44 4650
628639.6294887316 1012653.5389351968 100.7 57 22 48 4650
628702.559322118 1012637.6983395481 92.7 57 22 56 4650
628724.0121819208 1012626.7763727509 100.6 57 23 00 4650
628763.4388858938 1012654.1962362486 87.3 57 23 08 4650
628785.9991959756 1012633.9006002579 80.9 57 23 12 4650
628791.5100771256 1012665.965056327 100.2 57 23 16 4650
628784.7377080434 1012677.078552323 122.5 57 23 20 4650
628794.9361966546 1012609.3474479922 125.5 57 23 44 4650
628766.9130499341 1012609.8090958549 92.2 57 23 48 4650
628772.5363137207 1012614.1179672481 106.4 57 23 52 4650
628797.0697055969 1012605.4619292505 124.4 57 23 56 4650
628753.3590144669 1012597.7668763155 88.2 58 00 04 4650
628743.5870122556 1012612.154881648 102.8 58 00 08 4650
628697.6191404507 1012588.9490262811 115.6 58 00 12 4650
628688.587481114 1012568.3183158197 92.6 58 00 16 4650
628677.2541556136 1012549.2172014222 90.9 58 00 20 4650
628753.914915552 1012514.7773124767 112.0 58 01 00 4650
628696.6905943191 1012502.8362504978 107.9 58 01 08 4650
628661.784304652 1012491.0231646299 106.6 58 01 12 4650
628659.4629145162 1012501.9963464862 101.0 58 01 16 4650
628662.3004655719 1012508.0101480278 101.5 58 01 20 4650
628641.4866057158 1012504.9014524617 100.6 58 01 24 4650
628616.6667786378 1012496.8809847536 122.9 58 01 28 4650
628579.7868238029 1012497.2476244735 107.8 58 01 32 4650
628550.0631545875 1012486.7010612279 92.5 58 01 36 4650
628564.3749401205 1012475.2581774354 116.3 58 01 40 4650
628568.9447709019 1012485.877786336 129.2 58 01 44 4650
628565.0048385334 1012480.9330493807 131.0 58 01 48 4650
628554.7115981405 1012496.8011913091 71.0 58 01 52 4650
628556.7852844908 1012484.2680045869 120.3 58 02 00 4650
628560.1091830513 1012482.6532629117 128.6 58 03 40 4650
628556.0270119767 1012487.6603878489 132.9 58 03 44 4650
628546.5517019359 1012485.1636251451 125.4 58 03 48 4650
628547.496665958 1012485.1888127907 104.2 58 03 52 4650
628544.4695734017 1012473.2472448657 120.1 58 03 56 4650
628551.9480004174 1012468.0299948202 122.4 58 04 00 4650
628545.3622441696 1012462.3136493126 115.1 58 04 08 4650
628529.0409719247 1012463.1563153069 113.5 58 04 16 4650
628554.8433272509 1012469.7976494104 94.2 58 04 20 4650
628530.261131041 1012459.6548514621 135.1 58 04 24 4650
628605.612284605 1012615.0454847872 121.3 58 04 56 4650
628660.7178299706 1012629.6777259943 22.5 58 05 00 4650
628632.1781506595 1012620.0306463026 130.9 58 19 08 4650
628618.8430151761 1012611.6273176648 131.7 58 19 12 4650
628574.8801524341 1012613.8950278235 146.8 58 19 16 4650
628534.5156520846 1012628.1504442153 150.3 58 19 20 4650
628533.4332194579 1012629.8498789623 144.7 58 19 24 4650
628538.3006859116 1012633.4153623801 139.8 58 19 28 4650
628538.1163932905 1012632.640693741 147.9 58 19 32 4650
628536.9255468177 1012633.8863923819 146.6 58 19 36 4650
628553.4838746001 1012620.9469067819 160.8 58 19 40 4650
628495.5472917674 1012625.3366735795 158.0 58 19 48 4650
628463.9866082484 1012618.7761821452 148.3 58 19 52 4650
628444.5175371093 1012597.4923816565 167.8 58 19 56 4650
628465.5781776895 1012588.8912156165 157.8 58 20 00 4650
628454.2164027345 1012477.0234044988 153.7 58 20 08 4650
628469.8931181487 1012444.5634108816 153.7 58 20 16 4650
628486.8776371494 1012442.5175376732 128.9 58 20 20 4650
628525.657788095 1012479.6330013361 138.7 58 20 24 4650
628567.5617650194 1012485.3867324304 165.1 58 20 28 4650
628558.2421411969 1012478.9427181274 159.9 58 20 32 4650
628568.5560016232 1012473.6351645517 174.2 58 20 36 4650
628640.9773469968 1012560.1130899779 166.9 58 20 44 4650
628676.2874820251 1012552.4872660203 170.0 58 20 48 4650
628673.6288460145 1012552.27956905 172.1 58 20 52 4650
628664.9967414165 1012550.6922860399 176.0 58 20 56 4650
628674.5664988727 1012561.3060633752 214.7 58 21 00 4650
628682.4885840231 1012554.829653067 218.5 58 21 08 4650
628689.1005521119 1012555.8574592663 237.0 58 21 12 4650
628648.644179838 1012571.2956938798 126.2 58 21 36 4650
628652.1767022614 1012566.3531386202 132.9 58 21 40 4650
628647.3569298636 1012568.3942734972 128.9 58 21 44 4650
628646.2729266272 1012567.1964679997 127.9 58 21 48 4650
628644.6177775684 1012562.5356066311 129.3 58 21 52 4650
628650.4153163612 1012563.947792024 128.8 58 21 56 4650
628646.2432164566 1012562.8173476878 127.5 58 22 00 4650
628603.1351575326 1012515.0939684858 93.8 58 23 00 4650
628625.4651957292 1012565.5917038588 104.2 58 23 24 4650
628651.3869688032 1012562.5244527869 103.4 58 23 28 4650
628653.8858640541 1012557.7886397233 106.4 58 23 32 4650
628649.4532498136 1012565.8024299478 110.3 58 23 36 4650
628652.0797626898 1012569.1284165975 112.7 58 23 40 4650
628651.3918420981 1012564.4043525666 112.6 58 23 44 4650
628650.2885762572 1012565.7498566587 114.4 59 00 00 4650
628723.6249765594 1012533.0462884917 108.5 59 01 20 4650
628724.6810044439 1012529.3341896256 102.2 59 01 24 4650
628722.7841894131 1012538.1524139864 105.1 59 01 28 4650
628718.630072948 1012517.9909566016 102.5 59 01 44 4650
628714.1927386496 1012520.6968177838 63.1 59 01 48 4650
628721.8504106341 1012521.1861831575 98.1 59 02 00 4650
628752.6188592553 1012477.4518570133 115.4 59 02 48 4650
628753.1904210438 1012504.413472796 98.9 59 03 00 4650
628750.9560154027 1012502.1613954568 118.3 59 03 08 4650
628746.1051093779 1012574.5211564328 101.7 59 03 36 4650
628715.2058590928 1012580.8121803124 107.3 59 03 40 4650
628703.5712247026 1012586.7678267789 109.7 59 03 44 4650
628671.5129487945 1012584.5292834153 109.4 59 03 48 4650
628666.4127371723 1012564.6854416212 109.3 59 03 52 4650
628652.178234547 1012555.7483866186 107.8 59 03 56 4650
628656.6427150621 1012558.2067595988 123.9 59 04 00 4650
628655.1081194041 1012553.6458131612 126.0 59 04 08 4650
628651.1084700855 1012570.4411755678 115.2 59 05 00 4650
628633.9911650345 1012542.3752250768 106.7 59 05 12 4650
628646.3464547852 1012524.3242966217 94.8 59 05 16 4650
628652.503662174 1012523.2716861985 94.2 59 05 20 4650
628654.4983532133 1012514.7634068015 100.2 59 05 24 4650
628652.3998735788 1012511.2622079658 100.9 59 05 28 4650
628679.2164399871 1012503.3875895854 100.4 59 05 32 4650
628675.9669964415 1012502.3817844358 82.6 59 05 36 4650
628704.9663407715 1012502.4982627283 95.8 59 05 40 4650
628725.6865968921 1012483.7226224174 24.8 59 05 44 4650
628761.1661908687 1012548.9595287052 78.8 59 05 48 4650
628764.1160305381 1012557.6055441806 98.5 59 05 52 4650
628745.9694742152 1012538.5485720391 84.2 59 05 56 4650
628716.7742835718 1012554.7200674957 95.6 59 06 00 4650
628642.6651014289 1012578.3976862462 110.3 59 19 00 4650
628665.9899158048 1012559.5420302742 110.9 59 19 08 4650
628656.9373448882 1012555.4652991638 110.3 59 19 12 4650
628666.4839944912 1012563.0490685485 123.7 59 19 16 4650
628667.405591763 1012566.8781839014 122.1 59 19 20 4650
628655.1705958191 1012561.4641219883 122.7 59 19 24 4650
628656.3413579818 1012563.0160705001 123.7 59 19 28 4650
628667.3521074909 1012563.0518929878 124.6 59 19 32 4650
628671.8252781753 1012559.461492805 126.4 59 19 36 4650
628662.3266769873 1012564.1302987919 122.8 59 19 40 4650
628660.3881274575 1012552.0042693345 130.3 59 19 44 4650
628658.7622171978 1012558.62280617 125.4 59 19 48 4650
628654.4264697346 1012563.8834340228 122.8 59 19 52 4650
628649.4085582232 1012562.6507144689 128.5 59 20 00 4650
628509.254345268 1012613.980277646 129.2 59 20 16 4650
628485.7277108046 1012593.5236869003 129.7 59 20 20 4650
628483.7604081946 1012563.1737732405 130.7 59 20 24 4650
628462.5865215426 1012528.8247720018 119.7 59 20 28 4650
628464.848151244 1012495.6356009936 99.3 59 20 32 4650
628460.5272488046 1012448.9673014545 122.3 59 20 40 4650
628477.6800840773 1012442.4655433589 126.7 59 20 44 4650
628552.5914719136 1012449.2443122539 98.6 59 20 48 4650
628560.1792522627 1012407.004776944 101.9 59 20 52 4650
628563.3325118704 1012403.7971084347 130.0 59 20 56 4650
628638.6796535705 1012388.1183679217 97.4 59 21 00 4650
628698.9497409355 1012365.7779352465 94.4 59 21 08 4650
628710.3264616001 1012401.9529609644 96.0 59 21 12 4650
628749.8776364974 1012438.4740348387 93.5 59 21 16 4650
628767.9881610629 1012421.3596949347 100.6 59 21 24 4650
628769.0097190974 1012391.1079384851 95.7 59 21 28 4650
628775.4964459734 1012423.861164201 86.6 59 21 32 4650
628796.5343552907 1012435.7950554568 112.3 59 21 36 4650
628799.5660183856 1012442.9374316599 103.2 59 21 40 4650
628796.1265568344 1012442.9151730607 105.6 59 21 44 4650
628799.9706293402 1012446.919681637 97.5 59 21 48 4650
628796.7625812951 1012446.6991299257 99.5 59 21 52 4650
628792.048922388 1012446.5179082791 100.9 59 21 56 4650
628794.3560920265 1012439.9237085273 115.6 59 22 00 4650
628798.2039460811 1012442.7671239156 91.6 59 22 08 4650
628796.9102669301 1012448.5905537101 96.7 59 22 12 4650
628786.9151029006 1012450.5042397358 92.0 59 22 16 4650
628768.8637190214 1012429.2027696819 98.6 59 22 20 4650
628770.1551754411 1012444.3123994116 92.9 59 22 24 4650
628776.1875796773 1012468.0959927822 103.0 59 22 28 4650
628769.4897212319 1012490.0688346649 110.4 59 22 32 4650
628744.772027581 1012514.8138969924 117.0 59 22 36 4650
628744.8236597276 1012515.8314143071 117.6 59 22 40 4650
628743.6022483801 1012516.3361128151 119.9 59 22 44 4650
628749.2272295883 1012509.9959915581 113.9 59 23 00 4650
628749.1122206959 1012508.193139686 106.8 59 23 16 4650
628755.9932555094 1012507.5852268419 92.1 59 23 20 4650
628712.956845581 1012572.9204042592 108.2 59 23 32 4650
628721.9023566886 1012562.6212146827 117.2 59 23 36 4650
628654.6812094081 1012559.8922739015 109.6 59 23 52 4650
628655.5011583456 1012561.1887438657 123.8 59 23 56 4650
628658.9939167917 1012558.3360482977 122.8 60 00 00 4650
628656.4085526852 1012555.8727300805 127.2 60 00 08 4650
628662.4057969529 1012556.6994853681 136.5 60 00 12 4650
628636.2414925514 1012570.1384764331 98.8 60 01 00 4650
628648.407842046 1012654.0761679156 120.8 60 01 16 4650
628677.0278365302 1012645.7872178998 108.5 60 01 20 4650
628707.9159307766 1012639.529309464 103.2 60 01 24 4650
628697.8716333222 1012609.2857722763 108.2 60 01 28 4650
628711.1478615379 1012568.2590383589 71.4 60 01 32 4650
628720.3415261058 1012532.361054683 95.4 60 01 36 4650
628725.746099525 1012532.9647273908 106.9 60 01 40 4650
628716.675711262 1012534.3617054129 109.2 60 01 44 4650
628723.6362532815 1012532.9578600505 102.1 60 01 48 4650
628713.0833153444 1012534.0625016822 107.5 60 01 52 4650
628718.4145661469 1012533.5601204681 121.1 60 01 56 4650
628749.828958173 1012514.1889870369 74.9 60 02 00 4650
628674.9566473616 1012427.8798010171 101.0 60 03 00 4650
628642.7579485114 1012445.1252833056 118.3 60 03 32 4650
628639.1701316179 1012446.7944511663 113.0 60 03 36 4650
628588.7390529766 1012535.5710629126 107.5 60 04 00 4650
628646.1255933668 1012571.9509891728 117.1 60 04 08 4650
628643.9614903895 1012564.9773207975 123.2 60 04 12 4650
628640.2400742131 1012557.0475868635 118.9 60 04 16 4650
628640.0958173347 1012557.4783850899 112.4 60 04 20 4650
628643.076706057 1012559.9651050171 119.7 60 04 24 4650
628648.7330801827 1012567.6136222354 119.7 60 04 28 4650
628647.7625071222 1012568.7052208049 112.3 60 04 32 4650
628652.4977984835 1012619.6544225779 105.5 60 04 56 4650
628669.9003436738 1012593.8128753812 110.8 60 05 00 4650
628699.4589410402 1012577.388196621 112.1 60 05 08 4650
628675.9423026178 1012547.1229442442 83.9 60 05 12 4650
628688.5480513079 1012573.6813864426 89.6 60 05 16 4650
628747.6779642559 1012540.3234370454 104.2 60 05 20 4650
628760.284923061 1012563.122142694 107.6 60 05 24 4650
628735.4102630473 1012538.2045703691 80.2 60 05 28 4650
628719.7795307711 1012495.7014816818 103.0 60 05 32 4650
628714.9366646504 1012501.4580705959 85.3 60 05 36 4650
628709.5285618498 1012512.0673449828 66.8 60 05 40 4650
628682.366980644 1012544.9211623418 99.4 60 05 44 4650
628658.516811022 1012563.1226711677 136.5 60 18 56 4650
628646.5508833767 1012566.2021395498 131.9 60 19 00 4650
628639.1354236157 1012568.9536107223 123.8 60 19 08 4650
628655.4492363353 1012560.2596911171 129.7 60 19 12 4650
628653.0053760249 1012561.5897757647 125.3 60 19 16 4650
628647.4580059176 1012564.3473228381 127.9 60 19 20 4650
628625.8143377453 1012569.7396418854 110.6 60 19 24 4650
628578.9383384513 1012470.9264982739 103.0 60 19 32 4650
628575.2083228772 1012428.4511246833 135.6 60 19 40 4650
628457.725923724 1012469.0065984247 121.8 60 19 52 4650
628458.9807475521 1012502.1961322614 119.4 60 19 56 4650
628471.3508661941 1012557.3611116486 137.6 60 20 00 4650
628529.9660787184 1012580.873180735 119.8 60 20 08 4650
628579.3362021091 1012595.2876113564 151.4 60 20 12 4650
628641.4122394572 1012564.9247956945 101.8 60 20 16 4650
628641.663452121 1012568.7738457279 115.8 60 20 20 4650
628653.2925564836 1012567.8938502828 116.3 60 20 24 4650
628651.594513256 1012566.2848958161 115.1 60 20 28 4650
628647.4182595895 1012563.0533910912 122.4 60 20 32 4650
628648.8598750666 1012562.4167086009 120.1 60 20 44 4650
628658.1620207855 1012567.4673663325 118.4 60 20 48 4650
628654.2242996029 1012568.6046024658 121.7 60 20 52 4650
628650.3679776717 1012571.7436272404 126.2 60 20 56 4650
628646.2338795137 1012575.8216906476 126.5 60 21 00 4650
628648.6825609796 1012566.25330659 120.9 60 21 08 4650
628646.3346332271 1012565.1177383049 117.4 60 21 28 4650
628646.8287820646 1012582.1157079429 109.1 60 21 32 4650
628667.4681833436 1012584.7925766037 114.6 60 21 40 4650
628673.3366670064 1012588.0406482426 102.7 60 21 44 4650
628663.5328690932 1012591.9454483442 108.7 60 21 48 4650
628670.4436807805 1012504.4980355629 116.9 60 21 56 4650
628705.3813184402 1012456.0222414463 106.4 60 22 00 4650
628701.7952982814 1012457.1385026013 98.8 60 22 08 4650
