626025.5927450835 1013041.6852445018 90.8 46 08 32 4674
626015.4794388602 1013042.8583289266 75.0 46 08 36 4674
626014.1967856776 1013038.4641942686 71.7 46 08 40 4674
626014.0533498639 1013045.5408884676 77.7 46 08 44 4674
626022.2573294968 1013053.8605808904 99.2 46 08 48 4674
625977.9970703262 1013098.0401495313 -4.7 46 08 53 4674
626017.5680137249 1013039.1826570398 86.2 46 08 57 4674
626018.4035450098 1013045.9528469865 97.8 46 09 01 4674
626004.7850638498 1013036.7201932563 75.2 46 09 05 4674
626023.4107372042 1013043.6466204835 133.0 46 09 28 4674
626008.7521822345 1013046.9947091205 69.3 46 09 32 4674
626011.9277661517 1013047.0380068049 100.8 46 09 33 4674
626018.6883333584 1013056.5805403951 142.2 46 09 36 4674
626008.7784500814 1013049.0958221741 152.8 46 09 41 4674
625978.8974741003 1013060.3240171653 158.2 46 09 45 4674
625970.7631699382 1013061.1716783098 149.7 46 09 48 4674
625963.4456831664 1013060.8719071624 96.7 46 09 52 4674
625974.3495362441 1013053.0001527142 117.7 46 10 49 4674
625972.1397330235 1013060.2361313412 99.0 46 10 53 4674
626011.5133137398 1013042.6134659052 96.7 46 10 56 4674
626014.6471896461 1013045.3990270044 89.3 46 11 00 4674
626011.3060005272 1013069.727141538 77.0 46 11 08 4674
625990.9214449369 1013028.54833635 106.7 46 11 13 4674
625953.204275477 1012998.7925698315 101.0 46 11 17 4674
625926.181632395 1013030.3103712321 107.1 46 11 20 4674
625925.7282485125 1013031.2046285932 106.6 46 11 21 4674
625916.7561343099 1013032.8900438796 102.0 46 11 24 4674
625896.2455545217 1013062.2944024325 101.3 46 11 29 4674
625906.9823543848 1013017.1675442709 80.7 46 11 33 4674
625906.5151286364 1013022.4075695047 80.4 46 11 34 4674
625901.0556281956 1013121.8683561143 146.9 46 12 01 4674
625836.5390477161 1013053.567467597 25.4 46 12 17 4674
625803.5564836878 1013048.4310705572 80.7 46 12 21 4674
625766.5660669308 1013025.0804154439 73.8 46 12 24 4674
625760.3760228754 1013033.0667421655 103.3 46 12 28 4674
625759.9542013728 1013034.4034229742 109.1 46 12 29 4674
625772.7291350502 1013039.3870133657 113.2 46 12 32 4674
625768.7264085253 1013047.192311955 93.1 46 12 36 4674
625761.9115336424 1013044.3397705312 82.8 46 12 40 4674
625785.9441191776 1013051.1174137484 74.2 46 12 44 4674
625797.619487531 1013056.3186750356 77.7 46 12 48 4674
625798.342471587 1013039.7670877414 52.5 46 12 56 4674
625828.2238099885 1013066.379384044 78.2 46 13 00 4674
625851.5837646298 1013053.1730443963 86.2 46 13 08 4674
625863.2230370125 1013073.1588160915 92.2 46 13 12 4674
625886.5903281356 1013061.1025561207 50.9 46 13 17 4674
625947.4797454649 1013043.4488386881 75.2 46 13 20 4674
625962.7421819036 1013033.3572433537 108.6 46 13 25 4674
625935.8348969042 1013028.671360276 93.2 46 13 29 4674
625970.1817707433 1013057.4100891849 99.2 46 13 32 4674
625989.4322319742 1013051.0356599183 88.2 46 13 37 4674
625978.4340608552 1013040.2300670404 93.6 46 13 41 4674
625971.3447520194 1013061.4278668996 90.4 46 14 00 4674
626002.5260291473 1013052.5038857308 109.1 46 15 00 4674
626024.3743938033 1013061.9286488633 95.8 46 15 08 4674
626029.1668789409 1013061.4794910959 100.0 46 15 12 4674
626045.6963353696 1013067.5809515094 95.4 46 15 16 4674
626034.047859703 1013064.2927408193 97.1 46 15 28 4674
625994.0045588779 1013050.7074345752 74.7 46 15 32 4674
626014.69540945 1013044.0611567762 129.4 46 15 37 4674
625930.3693722774 1013016.1804715593 72.4 46 15 40 4674
625927.0541059243 1013015.1415116222 65.3 46 15 41 4674
625931.7744300843 1013013.1992753784 67.2 46 15 44 4674
625941.3762368998 1013017.3655756827 77.1 46 15 48 4674
625932.1140473161 1012975.5808848158 67.8 46 16 00 4674
625927.4050046343 1013008.4746277861 49.3 46 16 17 4674
625938.8381807216 1013034.5085192946 79.7 46 16 20 4674
625961.9844767181 1013026.2997946399 83.7 46 16 24 4674
625961.3364707079 1013046.8878137204 73.0 46 16 28 4674
625996.5691282785 1013045.9385323033 111.2 46 16 33 4674
625996.4160288523 1013045.7058252674 113.3 46 16 34 4674
625972.8162571135 1013047.941738296 90.4 46 16 37 4674
625981.5310185071 1013047.7041199023 98.0 46 16 41 4674
626010.4386669986 1013038.4632716153 134.6 46 16 45 4674
626053.1660693836 1013016.6935075929 101.0 46 16 48 4674
626028.0993419763 1013017.188598442 91.1 46 16 52 4674
626062.2149194034 1013011.6246032637 98.8 46 16 56 4674
626054.1031561827 1013008.8452800909 93.4 46 17 00 4674
626035.1950571098 1013018.1179823102 69.7 46 17 08 4674
626109.1441210931 1013019.5812793516 84.0 46 17 13 4674
626106.4403001178 1013026.660864883 45.8 46 17 16 4674
626171.7514998286 1013004.2666172092 85.5 46 17 25 4674
626175.341985611 1012977.6060500662 96.6 46 17 28 4674
626189.8330262394 1012981.998122023 105.7 46 17 32 4674
626222.4990344725 1012962.3969578596 126.1 46 17 40 4674
626218.417310347 1012970.821221744 129.4 46 17 44 4674
626218.0597989365 1012965.7776067023 127.2 46 17 48 4674
626218.3715826999 1012967.9349231219 129.1 46 17 52 4674
626216.4473110879 1012968.3268691029 126.4 46 17 56 4674
626217.0000586675 1012967.2891767108 131.8 46 18 00 4674
626218.8787518963 1012967.4057557962 125.2 46 18 08 4674
626218.0019255657 1012966.6952405622 131.1 46 18 12 4674
626219.8105837931 1012964.6552751467 132.0 46 18 16 4674
626221.5951896245 1012966.7067137453 128.5 46 18 20 4674
626221.6148717428 1012967.4255502374 139.5 46 18 24 4674
626220.9232976808 1012967.2021809135 133.2 47 06 00 4674
626209.0346561793 1012942.75909359 152.3 47 06 24 4674
626214.4350887879 1012951.5232575785 116.4 47 06 28 4674
626213.7884925865 1012950.9793484099 129.8 47 06 32 4674
626213.0060258383 1012958.5737344681 111.9 47 06 36 4674
626213.9273532253 1012965.9966315104 102.4 47 06 40 4674
626218.7480734208 1012960.1512538231 120.4 47 06 44 4674
626193.292126141 1012968.9606594514 121.7 47 06 48 4674
626188.284449786 1012981.7388433281 98.9 47 06 52 4674
626190.3235480008 1012979.7991349403 66.5 47 06 56 4674
626164.6051288804 1012977.8924643331 104.5 47 07 00 4674
626110.978545601 1012992.2405682422 165.4 47 07 08 4674
626123.3797238643 1012969.7106480957 74.0 47 07 12 4674
626121.6171235519 1012974.5373934681 101.3 47 07 16 4674
626075.9282100294 1012956.6766512642 88.5 47 07 20 4674
626060.1097478045 1012944.694568359 113.0 47 07 24 4674
626054.2608252831 1012955.9551284773 111.9 47 07 28 4674
626056.0015590976 1012947.6450255638 103.9 47 07 32 4674
626052.8081668387 1012970.4144258767 92.5 47 07 36 4674
626054.2870525857 1012968.4065765784 93.4 47 07 40 4674
626051.1512747387 1012983.4465835763 81.4 47 07 44 4674
626046.507767685 1013019.8791099474 99.4 47 07 48 4674
626041.3201599675 1013016.7331401141 107.4 47 07 52 4674
626032.1276052054 1013035.8563717823 103.4 47 07 56 4674
626024.65873235 1013058.9107078749 135.2 47 08 00 4674
626021.351273723 1013051.9778237517 82.9 47 08 04 4674
626020.6222684984 1013049.7085993879 84.1 47 08 08 4674
626010.8277530468 1013057.7386915602 93.7 47 08 12 4674
626016.3587482473 1013049.6839486216 93.6 47 08 16 4674
626020.5241338077 1013042.5758446344 111.8 47 08 20 4674
626024.7533847741 1013043.009534327 104.3 47 08 24 4674
626025.0952182132 1013056.4240383656 99.1 47 08 28 4674
626047.3584883146 1013059.790326381 126.6 47 08 32 4674
626058.4436163432 1013039.8769537476 100.3 47 08 36 4674
626050.7980275159 1013045.9787317291 101.1 47 08 40 4674
626050.0200974917 1013045.2685357272 97.3 47 08 44 4674
626041.8289400861 1013046.7131362434 101.7 47 08 48 4674
626021.4401670203 1013041.3292055309 82.0 47 08 52 4674
626020.8577630752 1013044.7774601395 92.1 47 08 56 4674
626024.1658668333 1013037.7219134861 82.0 47 09 01 4674
625996.4192098015 1013055.0498864728 97.8 47 09 05 4674
626026.140657396 1013052.5017639535 93.6 47 09 09 4674
626031.8071844636 1013063.9759709032 106.4 47 09 12 4674
626050.971385505 1013070.870956401 103.6 47 09 16 4674
626070.8350456731 1013061.7340085696 108.0 47 09 21 4674
626104.7505628753 1013053.4270189558 106.7 47 09 36 4674
626091.6686143128 1013027.5757921208 122.6 47 09 40 4674
626115.7122411919 1013027.4423937793 148.1 47 09 44 4674
626115.2512397007 1013010.0576642144 78.6 47 09 48 4674
626095.0345162211 1013029.9640104086 152.7 47 09 53 4674
626100.3314222221 1013016.0698784146 85.2 47 09 56 4674
626114.8627545038 1013025.0511441004 123.7 47 10 01 4674
626111.2212405307 1013019.4994417045 121.1 47 10 04 4674
626104.9410791037 1012997.1531986257 105.5 47 10 08 4674
626077.7584503042 1012978.8759968712 152.3 47 10 12 4674
626038.2637803188 1012968.9636777169 195.7 47 10 17 4674
626037.908632014 1012966.618238853 89.7 47 10 21 4674
626028.0637527405 1013000.7783395372 116.4 47 10 24 4674
626020.0156640065 1013043.5141577466 99.4 47 10 28 4674
626016.5192295517 1013054.4947117049 112.6 47 10 33 4674
625991.9354528147 1013058.6184019966 152.3 47 10 37 4674
626018.8335681905 1013048.9398912899 78.6 47 10 40 4674
626019.3356215878 1013050.0141227072 79.8 47 10 45 4674
626013.8076535297 1013046.7786066931 103.0 47 10 48 4674
626018.1381522127 1013049.9218405986 84.0 47 10 52 4674
626025.0405470094 1013080.4640641315 71.4 47 10 56 4674
626053.2488416131 1013076.8827409026 93.8 47 11 00 4674
626070.8808536065 1013064.5981899623 103.5 47 11 08 4674
626079.2770201212 1013071.2266273919 92.3 47 11 12 4674
626089.5795288618 1013089.9697152604 137.6 47 11 16 4674
626088.836046981 1013081.9060235501 127.3 47 11 17 4674
626093.2123778391 1013067.2348911357 80.7 47 11 20 4674
626129.3627567532 1013054.1800890844 89.4 47 11 24 4674
626123.2047146156 1013069.3320884019 116.5 47 11 29 4674
626138.3439010535 1013046.2248338881 72.7 47 11 33 4674
626127.8081547876 1013048.9225531423 76.4 47 11 36 4674
626133.3328191146 1013049.7474201171 84.7 47 11 37 4674
626142.2486475853 1013045.0430249658 99.8 47 12 08 4674
626120.7538632369 1013041.9002966565 75.0 47 12 16 4674
626101.1802036567 1013039.3497859613 87.4 47 12 20 4674
626102.8376223388 1013043.3802045392 95.0 47 12 25 4674
626072.5952147618 1013047.3309818137 86.5 47 12 28 4674
626036.2719669978 1013049.128187975 100.9 47 12 32 4674
626015.5006193856 1013050.0018962678 111.3 47 12 36 4674
626020.3192537848 1013044.7978593728 79.0 47 12 41 4674
626000.0695562657 1013054.3869815229 136.3 47 12 44 4674
626044.8510700039 1013019.0665895152 50.9 47 12 52 4674
626056.2353967235 1013025.9367677482 74.7 47 12 56 4674
626069.6937090798 1013023.3699888564 65.2 47 13 00 4674
626083.0950219824 1013031.783677685 118.4 47 13 08 4674
626097.5557275792 1013062.9029325136 91.4 47 13 13 4674
626102.167986753 1013070.7246317654 91.0 47 13 16 4674
626108.282021093 1013083.1402150964 95.9 47 13 20 4674
626120.6430631884 1013066.2940080779 85.8 47 13 24 4674
626131.1021824966 1013084.1640225234 72.9 47 13 28 4674
626140.5422336524 1013087.356751239 73.4 47 13 32 4674
626143.5055917816 1013102.2503492245 68.4 47 13 36 4674
626124.7269502721 1013115.725479577 76.5 47 13 40 4674
626114.181359208 1013124.9584781012 85.6 47 13 44 4674
626098.6857650897 1013146.1294408372 69.5 47 13 48 4674
626094.9072122985 1013149.0920017731 76.1 47 13 52 4674
626092.0706232132 1013142.6803396257 85.8 47 13 56 4674
626091.3682760999 1013135.5014228876 81.2 47 14 00 4674
626075.8498215642 1013153.5097168114 98.9 47 14 08 4674
626029.4069200289 1013144.7252573242 92.9 47 14 12 4674
626013.2786529129 1013136.8779069759 92.2 47 14 16 4674
625997.3152501298 1013101.4412573667 107.0 47 14 20 4674
626003.8780512938 1013110.9721009313 90.7 47 14 24 4674
625998.8162687169 1013078.6996357018 103.8 47 14 28 4674
626000.9433356273 1013049.1593098067 100.8 47 14 32 4674
626009.6818925836 1013041.4575903795 94.7 47 14 36 4674
626008.9473068577 1013044.3856315892 102.4 47 14 40 4674
626016.4154782841 1013052.5702803521 99.6 47 14 44 4674
626014.5002139376 1013046.6923501994 94.7 47 14 48 4674
626021.3088903393 1013034.2516353744 107.5 47 14 52 4674
626023.058063315 1013016.3984622853 111.6 47 14 56 4674
626039.1232147516 1012999.2544161639 92.3 47 15 00 4674
626089.7008871755 1013027.8127924086 108.4 47 15 08 4674
626106.7692682088 1013030.3221297275 85.5 47 15 12 4674
626133.5743650149 1013018.81881565 85.8 47 15 16 4674
626148.0207055706 1013016.5537826868 83.3 47 15 20 4674
626158.5827929713 1013015.9350658418 60.1 47 15 24 4674
626186.0993976754 1013032.8421987523 100.8 47 15 29 4674
626211.9397533374 1013051.6128130729 118.9 47 15 32 4674
626216.4226094135 1013062.0991067122 123.3 47 15 36 4674
626215.9903829696 1013046.0414286521 87.2 47 15 40 4674
626215.1133745551 1013041.9471474297 73.7 47 15 44 4674
626292.7440573118 1013053.5959645209 122.7 47 15 48 4674
626299.2702333264 1013043.6203311817 111.7 47 15 52 4674
626322.3596649641 1013042.9200496769 107.8 47 15 56 4674
626314.1314275825 1013038.769098363 90.0 47 16 00 4674
626321.193469548 1013033.0414751511 95.2 47 16 08 4674
626319.9918706965 1013020.4867371497 82.4 47 16 12 4674
626337.0598756569 1013009.3615855231 85.7 47 16 16 4674
626347.3697838858 1013025.7604681259 110.3 47 16 20 4674
626352.6517920297 1013019.9939858783 103.9 47 16 24 4674
626368.4948933667 1013024.2356368895 117.1 47 16 28 4674
626350.7848234592 1013026.5233322051 96.9 47 16 33 4674
626326.4670837541 1013050.5300638148 114.7 47 16 37 4674
626370.6440431137 1013053.181455295 86.3 47 16 40 4674
626428.3355339032 1013039.1342124733 150.9 47 16 44 4674
626386.0251354157 1013064.4435079162 98.2 47 16 48 4674
626421.4405766261 1013075.0729828479 86.1 47 16 52 4674
626419.5484343593 1013072.2913570396 117.8 47 16 56 4674
626409.6467740445 1013079.4363723355 106.3 47 17 00 4674
626470.0362821142 1013142.5610041678 92.1 47 17 08 4674
626468.400031063 1013169.7033202478 104.7 47 17 13 4674
626470.5619075821 1013177.4730005113 94.6 47 17 16 4674
626496.7097897336 1013158.4594003952 104.8 47 17 20 4674
626493.8094191331 1013158.2621304715 95.3 47 17 24 4674
626527.374453342 1013132.449458841 83.2 47 17 28 4674
626558.0331619644 1013104.8803295128 103.3 47 17 32 4674
626579.3788801364 1013082.5008024808 106.2 47 17 36 4674
626579.878167108 1013087.8655651147 109.9 47 17 37 4674
626588.4302679481 1013073.2299533548 130.1 47 17 40 4674
626605.0742070089 1013057.2932917242 102.9 47 17 45 4674
626626.8883765433 1013036.198020869 166.3 47 17 49 4674
626627.9378168649 1013034.4763236921 173.3 47 17 53 4674
626599.1903160078 1013079.4237603785 109.2 47 17 56 4674
626603.6182887759 1013055.5525114234 116.0 47 18 00 4674
626623.0230862609 1013049.0682910925 117.3 47 18 09 4674
626659.2379565802 1013043.4009478693 139.5 47 18 12 4674
626664.8406844418 1013129.594460277 113.2 47 18 16 4674
626674.6255951219 1013131.4614598047 125.8 47 18 20 4674
626665.2682611158 1013150.4734720393 131.9 47 18 24 4674
626666.6417552602 1013147.0719874154 141.7 47 18 28 4674
626677.3868112034 1013147.6482707672 137.7 48 06 00 4674
626670.9505591008 1013122.6806296277 127.5 48 06 20 4674
626671.5978556413 1013123.003388257 128.7 48 06 24 4674
626675.9654161005 1013128.2810288914 89.4 48 06 28 4674
626669.503331256 1013121.6586487567 129.7 48 06 32 4674
626685.5601889677 1013127.7588778796 147.3 48 06 36 4674
626704.6062434317 1013144.0531830799 136.6 48 06 40 4674
626742.7315713528 1013135.4284859166 99.7 48 06 44 4674
626724.6212864311 1013170.0043060356 131.2 48 06 48 4674
626725.607547807 1013184.5598953185 121.7 48 06 52 4674
626716.5047792742 1013199.5696905887 109.6 48 06 56 4674
626709.1713880227 1013204.2348020421 110.7 48 07 00 4674
626704.7501670315 1013215.6989088195 108.3 48 07 05 4674
626699.7384410719 1013222.8374155622 144.2 48 07 09 4674
626704.5322400912 1013215.1231902575 96.5 48 07 12 4674
626692.2508189445 1013258.4757012309 101.2 48 07 16 4674
626678.1336678109 1013274.6084084322 91.0 48 07 20 4674
626673.3282901407 1013313.3626121855 119.7 48 07 24 4674
626672.6404103376 1013308.5612030205 80.4 48 07 28 4674
626700.4503157494 1013346.9665883842 91.0 48 07 32 4674
626706.9625167069 1013348.2259737629 102.3 48 07 36 4674
626711.1352654225 1013352.5630615498 119.5 48 07 40 4674
626673.7055098439 1013360.227939959 111.3 48 07 44 4674
626673.1599876917 1013338.4417848466 81.6 48 07 48 4674
626680.0368934267 1013366.4739330788 126.9 48 07 52 4674
626703.7703600635 1013349.9297398664 108.2 48 08 00 4674
626699.3129950187 1013362.3889567105 107.8 48 08 08 4674
626697.7853151412 1013359.0445197177 111.1 48 08 12 4674
626696.7246061914 1013360.8546430877 109.8 48 08 13 4674
626679.7041914712 1013363.995857762 106.6 48 08 16 4674
626668.308782533 1013370.9259138542 99.9 48 08 20 4674
626690.1811706183 1013372.7653263203 106.6 48 09 00 4674
626663.8798943529 1013377.9335938476 75.8 48 09 13 4674
626699.0944037429 1013351.739329367 64.7 48 09 16 4674
626700.5815039213 1013347.1771124493 105.0 48 09 20 4674
626698.122321829 1013339.6165622044 95.9 48 09 24 4674
626690.9000472692 1013343.9060555255 115.3 48 09 28 4674
626689.7537665991 1013351.8420782038 165.2 48 09 32 4674
626692.4845598325 1013329.524580222 73.3 48 09 40 4674
626700.7298553665 1013338.6075798195 82.7 48 09 44 4674
626697.7456641389 1013340.566349 85.1 48 09 45 4674
626669.6285356098 1013353.4362710703 85.2 48 09 48 4674
626682.1004653312 1013350.0482498038 105.1 48 09 52 4674
626668.1241058102 1013339.4098105772 -7.3 48 10 00 4674
626702.4518776259 1013356.7372866609 88.3 48 10 20 4674
626713.8729623291 1013348.6572816363 77.8 48 10 24 4674
626689.4086300492 1013336.1053311882 113.9 48 10 28 4674
626702.3917164281 1013324.0936555692 109.1 48 10 32 4674
626660.9777961253 1013337.1421147006 91.3 48 10 36 4674
626636.2393148039 1013303.8333189536 92.4 48 10 40 4674
626630.2017213491 1013288.1999731284 109.6 48 10 44 4674
626629.1067022677 1013290.4301949028 106.1 48 10 45 4674
626637.054650714 1013292.8663236502 105.2 48 10 48 4674
626613.1469323494 1013288.3443720294 73.7 48 10 53 4674
626622.3780885921 1013264.1125391839 81.3 48 10 56 4674
626603.4906666765 1013270.344068962 104.4 48 11 00 4674
626547.6792363708 1013246.401517172 98.2 48 11 08 4674
626510.8121305098 1013273.9507661256 97.8 48 11 12 4674
626511.2437119188 1013269.5731527939 98.4 48 11 13 4674
626486.3732667993 1013270.577233115 107.8 48 11 16 4674
626474.185374962 1013260.751836298 125.6 48 11 21 4674
626451.8028230941 1013260.3595267787 110.6 48 11 25 4674
626419.6629887626 1013266.6482608948 90.8 48 11 29 4674
626391.762003984 1013273.8020476642 113.5 48 11 33 4674
626396.2519130919 1013275.1876079543 119.4 48 11 34 4674
626407.2604137189 1013220.8724334664 44.5 48 11 36 4674
626391.3078719075 1013285.2346332609 108.7 48 11 40 4674
626364.6192311764 1013298.1425072253 87.0 48 11 44 4674
626340.5826745919 1013316.7316619874 162.3 48 11 48 4674
626336.6734810001 1013284.9382935611 89.5 48 11 52 4674
626310.7365088463 1013286.1491761046 88.2 48 11 56 4674
626279.5609670931 1013276.1083463305 114.6 48 12 00 4674
626214.8902416603 1013228.8165369781 73.4 48 12 08 4674
626191.5775393193 1013206.5596291791 66.2 48 12 12 4674
626177.0950917348 1013185.7353021489 75.3 48 12 16 4674
626135.9252740268 1013139.547089581 92.0 48 12 20 4674
626113.5700130438 1013113.3676877384 82.4 48 12 24 4674
626058.5442858917 1013087.5595901539 96.9 48 12 28 4674
626022.5496372608 1013058.6828224494 76.4 48 12 32 4674
626012.578512509 1013049.727187316 101.7 48 12 36 4674
626014.224125427 1013047.12273394 82.2 48 12 40 4674
626023.2325247151 1013054.7372759874 97.0 48 12 44 4674
626010.0614507431 1013043.0401013851 98.5 48 12 48 4674
626018.5502280472 1013048.1980986522 94.5 48 12 52 4674
626032.4654996124 1013047.0592536124 79.9 48 12 56 4674
625996.3596145137 1013042.7199723308 101.3 48 13 00 4674
625941.4171146363 1013028.6780874928 89.2 48 13 08 4674
625939.3222866743 1013023.9717434205 88.4 48 13 12 4674
625936.8888780688 1013032.4123379369 57.1 48 13 16 4674
625928.186059904 1013025.4512166162 42.2 48 13 20 4674
625892.8848935147 1013065.1587902628 101.1 48 13 32 4674
625893.4687299561 1013054.3569398188 102.1 48 13 37 4674
625885.9833882995 1013065.3579703516 143.6 48 13 40 4674
625888.7205903868 1013065.0349466584 115.6 48 14 01 4674
625870.8797188514 1013070.4629190506 69.6 48 14 20 4674
625838.571096716 1013064.189658133 96.4 48 14 24 4674
625793.010777784 1013054.2693280975 60.9 48 14 28 4674
625810.8779978765 1013071.632029681 94.0 48 14 33 4674
625781.33922894 1013030.6011521132 60.9 48 14 36 4674
625763.5175377312 1013030.0026020232 63.8 48 14 40 4674
625764.8633352715 1013024.920185346 84.8 48 14 44 4674
625720.7419100143 1012994.4476310711 86.6 48 14 48 4674
625725.1162630976 1013001.0853088595 81.1 48 14 52 4674
625709.5493639915 1012972.1743208739 92.2 48 14 56 4674
625711.4117201584 1012980.8829193616 129.5 48 15 00 4674
625726.9686566275 1012964.5554407028 80.3 48 15 08 4674
625763.1760074922 1012968.109665133 106.0 48 15 12 4674
625772.9278440442 1012952.7589571687 73.6 48 15 16 4674
625778.2015826781 1012932.2962459695 47.9 48 15 20 4674
625796.3260474869 1012913.7321758545 68.3 48 15 24 4674
625787.3985324964 1012891.0347859195 56.6 48 15 28 4674
625814.3080114622 1012874.3453669229 86.2 48 15 32 4674
625822.6524642762 1012886.8896263355 117.1 48 15 36 4674
625811.1133867488 1012883.7345353399 123.5 48 15 40 4674
625805.0323520903 1012878.1751052301 107.7 48 15 41 4674
625798.0328585067 1012840.0910566344 81.8 48 15 44 4674
625818.4550544166 1012838.4641629733 108.9 48 15 48 4674
625844.6358991234 1012812.4947429377 115.9 48 15 52 4674
625830.5146537251 1012809.2761398148 121.3 48 15 56 4674
625833.2658549008 1012794.2017274251 99.1 48 16 00 4674
625848.7813845616 1012759.8495426823 130.0 48 16 08 4674
625853.4918775116 1012743.7419110662 126.2 48 16 12 4674
625839.7398833204 1012738.4345132869 118.0 48 16 16 4674
625855.8274778653 1012738.4083111016 132.2 48 16 20 4674
625866.0734766533 1012730.0921039304 136.7 48 16 24 4674
625862.2810398003 1012737.4115136686 122.9 48 16 28 4674
625902.081514868 1012761.7995739774 137.1 48 16 32 4674
625921.0664367516 1012762.932662129 123.5 48 16 36 4674
625962.1986462419 1012762.4997195316 144.0 48 16 40 4674
625972.3821122784 1012756.5718764907 123.8 48 16 44 4674
625985.3733023636 1012786.8238525039 108.6 48 16 48 4674
625984.781487851 1012796.6746863516 112.6 48 16 52 4674
625956.8013141846 1012832.0708071338 110.5 48 16 56 4674
625994.576217294 1012836.868725799 135.3 48 17 00 4674
626022.7465615569 1012793.5335554177 124.1 48 17 08 4674
625997.6726248821 1012789.3511063964 68.7 48 17 12 4674
626022.1400077522 1012776.9777241902 87.6 48 17 16 4674
626062.5042589947 1012772.7052966865 90.1 48 17 20 4674
626080.9158550145 1012777.883881134 130.5 48 17 25 4674
626110.0753543999 1012772.4367936489 127.8 48 17 28 4674
626125.9469680605 1012767.7766905138 135.2 48 17 32 4674
626166.2296453695 1012758.085660067 129.2 48 17 37 4674
626184.334608271 1012742.2751293187 138.5 48 17 40 4674
626200.8691659258 1012757.1456929507 136.0 48 17 44 4674
626204.4301298455 1012760.397068981 139.0 48 17 48 4674
626202.6748429781 1012759.4847058351 155.9 48 17 52 4674
626202.2415214416 1012760.9761600543 157.0 48 17 56 4674
626202.7720111847 1012760.0268606432 149.3 48 18 00 4674
626198.9995333394 1012754.1872250175 157.1 48 18 08 4674
626201.8749552121 1012755.3243243152 166.6 48 18 12 4674
626199.9222608986 1012754.2896926426 156.3 48 18 16 4674
626200.4485858736 1012754.6452302961 165.3 48 18 20 4674
626199.8406109896 1012755.7712112883 163.6 48 18 24 4674
626202.1126108955 1012756.6078171646 151.7 49 06 01 4674
626201.3792313911 1012755.7097739446 157.8 49 06 20 4674
626202.4476700686 1012754.9170043267 147.1 49 06 24 4674
626193.7218482523 1012755.1545470512 148.7 49 06 28 4674
626208.5918339568 1012754.4611197251 142.2 49 06 32 4674
626204.0001613622 1012760.8380187309 151.5 49 06 36 4674
626207.1993116951 1012763.8339049602 160.8 49 06 40 4674
626181.6323459707 1012766.0744946976 241.1 49 06 44 4674
626203.6138176124 1012768.2677980651 187.6 49 06 48 4674
626205.147308986 1012756.0424847539 152.3 49 07 00 4674
626193.9503295398 1012721.439270135 142.9 49 07 20 4674
626171.5649688918 1012718.3932166832 142.3 49 07 24 4674
626133.7276663568 1012695.2275183112 139.2 49 07 28 4674
626132.7548205369 1012672.9424415213 129.8 49 07 32 4674
626136.9326422722 1012668.8421731372 136.5 49 07 36 4674
626125.9514220104 1012652.6955651549 120.7 49 07 40 4674
626093.7846313287 1012687.9897971032 151.5 49 07 44 4674
626088.3789824231 1012680.8401173342 142.8 49 07 48 4674
626068.0670086202 1012675.4343154515 116.7 49 07 52 4674
626072.1470430713 1012684.7692590994 143.9 49 07 56 4674
626058.2798467217 1012701.8097336582 155.3 49 08 00 4674
626003.6715193547 1012775.8572901739 124.4 49 08 08 4674
625993.4251267494 1012773.9447693641 128.7 49 08 12 4674
625994.0458412801 1012796.4056408611 131.1 49 08 16 4674
626015.6801210861 1012786.8540874652 111.7 49 08 20 4674
625981.7645471088 1012798.5670570646 114.7 49 08 24 4674
625956.4766233977 1012830.5105882272 102.8 49 08 28 4674
625936.1032921071 1012837.4896614245 132.8 49 08 32 4674
625907.2073217782 1012836.1259522038 120.5 49 08 36 4674
625843.2672582215 1012814.3923697919 129.1 49 08 40 4674
625843.2784932059 1012814.3149992593 131.0 49 08 44 4674
625866.584279933 1012776.7476105909 157.3 49 08 48 4674
625874.0664043702 1012732.2517505643 149.7 49 08 52 4674
625876.0781876048 1012721.6313762116 152.3 49 08 56 4674
625872.9356626589 1012707.7435289836 150.1 49 09 00 4674
625922.0451649384 1012676.4397581265 162.2 49 09 08 4674
625873.8076595623 1012720.3303571034 146.4 49 09 13 4674
625855.3758018638 1012766.3837195084 124.3 49 09 16 4674
625916.6061928541 1012790.1654785632 147.7 49 09 20 4674
625856.0584973 1012862.6019187651 117.6 49 09 28 4674
625858.8209936778 1012857.7894064948 112.8 49 09 29 4674
625875.7127407707 1012881.2862366798 150.5 49 09 32 4674
625896.5458153525 1012847.2495668012 148.0 49 09 37 4674
625862.5293490309 1012873.4262267052 138.6 49 09 45 4674
625861.1048709801 1012865.2497980829 126.8 49 09 49 4674
625871.7474644112 1012866.964503558 128.1 49 09 52 4674
625879.5256899637 1012860.6198360063 109.4 49 09 56 4674
625876.1071423586 1012857.5016412544 152.3 49 10 01 4674
625879.0060318423 1012837.4626387003 128.2 49 10 24 4674
625882.0243895038 1012852.3784915818 133.4 49 10 28 4674
625880.3517534168 1012842.7637261645 116.5 49 10 32 4674
625893.7140271473 1012839.3119319134 124.8 49 10 36 4674
625892.1765009037 1012835.580475242 120.1 49 10 40 4674
625908.4031423766 1012836.7379529235 140.0 49 10 45 4674
625889.8423607853 1012819.7489824288 120.1 49 10 48 4674
625886.5066519749 1012821.6735187542 106.8 49 10 52 4674
625882.9585054475 1012831.647634469 127.5 49 10 56 4674
625911.7480066705 1012828.4882462305 133.5 49 11 00 4674
625884.0855923588 1012812.432343819 130.6 49 11 08 4674
625866.9067096001 1012816.9888540307 130.1 49 11 12 4674
625838.9849681262 1012809.9002327776 113.8 49 11 16 4674
625834.6164062086 1012797.9878759468 139.3 49 11 20 4674
625831.0497186426 1012796.5279210359 135.8 49 11 24 4674
625854.2050067459 1012795.8828489651 178.0 49 11 28 4674
625842.5886082911 1012782.4877592454 151.2 49 11 32 4674
625849.6925952892 1012760.1178360115 157.2 49 11 36 4674
625827.4687207321 1012737.4112950041 105.2 49 11 41 4674
625856.3050151707 1012733.3784220675 160.3 49 11 45 4674
625856.5787374363 1012747.5004128589 141.0 49 11 48 4674
625855.4653246034 1012745.1636219467 127.1 49 11 49 4674
625849.8955858384 1012768.8432771112 129.3 49 11 52 4674
625871.6063301649 1012831.9100577162 117.7 49 11 56 4674
625858.4685803504 1012878.7432755064 163.2 49 12 01 4674
625863.6998426075 1012871.6385501967 160.0 49 12 05 4674
625880.850669795 1012910.3963089819 142.7 49 12 52 4674
625879.5378369759 1012936.17948669 118.9 49 12 56 4674
625887.1844764985 1012940.096267895 106.1 49 13 00 4674
625912.4403705673 1012928.5215232617 93.4 49 13 08 4674
625952.6483648887 1012942.1957160111 77.0 49 13 12 4674
625972.1029204233 1012947.6540326456 92.9 49 13 16 4674
626002.6142922946 1012955.8678807406 81.7 49 13 20 4674
626017.24120819 1012955.560648336 107.2 49 13 24 4674
626040.8276890072 1012943.7263251996 87.5 49 13 28 4674
626048.2290633927 1012952.1872162514 104.5 49 13 32 4674
626057.1381425993 1012946.1558131068 104.8 49 13 36 4674
626064.0847694897 1012942.1528347086 98.7 49 13 40 4674
626055.7465106659 1012934.5846551266 109.5 49 13 44 4674
626083.3173084615 1012927.6396598011 104.2 49 13 48 4674
626112.886364843 1012917.7817313984 105.6 49 13 52 4674
626138.6983799007 1012911.0302062985 95.7 49 13 56 4674
626171.4692117188 1012920.5673031899 86.8 49 14 00 4674
626164.3361325379 1012910.6807539259 58.2 49 14 08 4674
626175.9059182716 1012921.4218757505 123.8 49 14 13 4674
626209.0441233517 1012915.7000621444 117.1 49 14 16 4674
626214.0635694655 1012913.00686361 133.5 49 14 20 4674
626225.640152545 1012904.4074836414 123.7 49 14 24 4674
626245.4147779507 1012923.1919172405 132.9 49 14 28 4674
626241.9850960916 1012920.1289411628 132.2 49 14 29 4674
626246.8184860912 1012920.6419888692 129.5 49 14 32 4674
626275.5063830292 1012932.0902395748 137.7 49 14 36 4674
626305.2265565494 1012943.7408564854 130.7 49 14 40 4674
626328.190158199 1012934.2932437409 107.2 49 14 44 4674
626359.7358072181 1012942.079416105 135.4 49 14 48 4674
626355.2274577309 1012932.6988283516 119.4 49 14 52 4674
626378.8717618699 1012930.3195197242 121.6 49 14 56 4674
626405.8873133501 1012925.2196630501 142.7 49 15 00 4674
626404.7218937561 1012921.9759243199 128.3 49 15 08 4674
626437.8240277418 1012944.7286965583 151.0 49 15 12 4674
626425.6001766621 1012963.2892639287 102.1 49 15 16 4674
626434.5369471977 1012958.927794936 141.4 49 15 21 4674
626463.7772225068 1012976.3050822467 151.1 49 15 25 4674
626431.5654732145 1012946.5996084572 55.7 49 15 33 4674
626443.5440455156 1012929.1440639271 101.5 49 15 36 4674
626472.0983512953 1012954.8569416503 128.5 49 15 40 4674
626491.2264077031 1012962.7472533634 108.8 49 15 44 4674
626495.7297748554 1012949.6357395304 124.9 49 15 48 4674
626517.5371886401 1012934.0804790391 96.8 49 15 53 4674
626516.7259261812 1012950.6539242663 129.6 49 15 57 4674
626533.1516546089 1012954.83115605 103.4 49 16 04 4674
626554.9573566143 1012967.2749369568 119.0 49 16 08 4674
626557.581646264 1012967.9025903795 113.9 49 16 12 4674
626601.0757791772 1012977.9277757013 120.0 49 16 16 4674
626605.7534102678 1012979.0375056955 113.5 49 16 20 4674
626615.3569371009 1012992.9461428275 115.6 49 16 24 4674
626630.6094560805 1012982.5893559123 119.9 49 16 28 4674
626642.6658468731 1012982.0308434765 112.7 49 16 32 4674
626658.91223984 1012994.1583099421 108.8 49 16 36 4674
626673.0247191933 1012979.5073531506 124.4 49 16 40 4674
626704.1321723419 1012986.8500864131 131.3 49 16 44 4674
626652.9027252735 1012993.7520224286 42.8 49 16 48 4674
626696.3565384654 1012978.631131944 124.8 49 16 53 4674
626725.6857171557 1012988.8101081832 120.1 49 16 56 4674
626725.4219892281 1012995.6652686752 123.8 49 17 00 4674
626743.6462996902 1013007.799115001 146.1 49 17 08 4674
626756.7544566882 1013021.9291345379 127.0 49 17 16 4674
626745.9569331574 1013027.4235488207 133.1 49 17 20 4674
626736.0286046864 1013039.4339585509 120.6 49 17 24 4674
626778.5581193094 1013010.9962731763 121.3 49 17 28 4674
626788.5788747023 1013001.0097961833 151.1 49 17 32 4674
626780.9566887819 1012962.0830375042 158.6 49 17 37 4674
626773.1011242934 1012958.231750165 178.0 49 17 40 4674
626787.5454009115 1012970.3424357822 127.5 49 17 44 4674
626801.063974301 1012979.8515104285 171.7 49 17 48 4674
626804.5806828641 1012993.4531677008 142.4 49 17 52 4674
626793.8458051246 1013003.3931184242 139.4 49 17 56 4674
626763.8201523303 1012991.0997620755 152.1 49 18 00 4674
626766.6133133754 1013014.4523170046 147.0 49 18 08 4674
626768.1038239739 1013015.6845434406 148.8 49 18 12 4674
626768.0106007934 1013013.9149523514 145.3 49 18 16 4674
626772.9546925129 1013007.318078892 158.9 50 06 00 4674
626775.0787517388 1013006.3075480082 129.2 50 06 17 4674
626765.1950245241 1013000.979032528 147.3 50 06 20 4674
626779.5871380724 1012995.0870019731 135.2 50 06 24 4674
626773.5231812175 1012991.0977047767 109.9 50 06 28 4674
626775.4867338159 1012992.165577328 113.8 50 06 32 4674
626765.6852109971 1012981.7616691812 152.9 50 06 36 4674
626776.7929624781 1012989.1840860569 111.9 50 06 40 4674
626774.6094200346 1012991.6098599064 131.2 50 06 44 4674
626764.6779980895 1012997.7263002769 143.8 50 06 48 4674
626773.8498700701 1012985.1716238426 135.2 50 06 52 4674
626764.2285385539 1012990.537109843 147.2 50 06 56 4674
626771.0008418387 1012989.5193688291 130.1 50 07 00 4674
626770.5502339875 1012992.9680433668 142.9 50 07 08 4674
626766.6132392931 1012990.4894668313 136.5 50 07 12 4674
626768.963870263 1012994.2125185097 141.2 50 07 52 4674
626773.8339469915 1012990.1366488218 147.1 50 07 56 4674
626771.8541117319 1012997.5723844332 126.3 50 08 00 4674
626772.220038157 1012993.1171534207 147.4 50 08 08 4674
626765.6133443625 1012993.8921475775 147.7 50 08 32 4674
626766.9347007186 1012996.4729166254 132.7 50 08 36 4674
626762.6113845417 1012980.8229337485 168.8 50 08 40 4674
626771.2191901896 1012993.3903955825 148.7 50 08 44 4674
626760.7994925474 1012994.1421043265 140.6 50 08 48 4674
626772.0856167573 1012997.3409072859 151.4 50 08 52 4674
626772.395323596 1012993.2835867031 143.4 50 08 56 4674
626770.4709733432 1012993.6976221779 142.5 50 09 00 4674
626760.5621052231 1012992.7811998155 135.6 50 09 32 4674
626761.3835146968 1012997.0633090504 147.3 50 09 36 4674
626767.7463712826 1012993.5119553084 137.0 50 10 00 4674
626756.3268078482 1013004.5112945181 186.7 50 10 40 4674
626762.2812850324 1012994.6665856239 166.4 50 10 44 4674
626752.8542130367 1012994.2824978055 146.7 50 10 48 4674
626765.5590441382 1012990.2649246621 144.6 50 10 52 4674
626770.494931562 1012996.5064502514 144.7 50 10 56 4674
626776.7376132243 1012999.5895580283 138.2 50 11 00 4674
626770.4668951303 1012994.9692878092 141.9 50 12 00 4674
626773.110351708 1012999.8986091841 139.5 50 12 48 4674
626792.5921556706 1013000.2596615612 168.3 50 12 52 4674
626779.0495895505 1012991.3808224674 157.2 50 12 56 4674
626767.2057010056 1012990.7788767524 173.6 50 13 00 4674
626768.7444129706 1012997.5402955047 133.1 50 13 28 4674
626764.6197971127 1012995.3154531663 147.2 50 13 32 4674
626769.7902435703 1012996.9465133575 138.0 50 14 00 4674
626765.3322466686 1012995.8816997384 140.0 50 14 28 4674
626787.7772173211 1012993.9964044808 124.8 50 14 32 4674
626759.2254968229 1012998.383357898 138.3 50 14 36 4674
626770.852833373 1013001.4063256131 157.7 50 14 40 4674
626766.6379025219 1012996.5051390504 141.5 50 15 00 4674
626774.2934462448 1012990.7684327887 140.7 50 15 24 4674
626773.450227923 1012993.2869698276 132.5 50 15 28 4674
626774.2218811369 1012989.0984338206 133.3 50 15 32 4674
626768.2860177318 1012993.1377113393 134.5 50 15 36 4674
626769.0895628475 1012996.1370267707 126.7 50 15 40 4674
626779.2097070857 1012989.4240565378 147.2 50 15 44 4674
626775.4981920791 1013009.1508187456 124.8 50 15 48 4674
626753.730033286 1013032.9996276367 130.0 50 15 52 4674
626726.9425409769 1013045.7963943594 131.9 50 15 56 4674
626661.8727914488 1013033.8773326621 106.0 50 16 00 4674
626516.5783810726 1013061.986068448 111.5 50 16 08 4674
626444.8337247848 1013055.0000171753 124.9 50 16 12 4674
626429.7695271552 1013027.1186836835 124.9 50 16 16 4674
626350.5277838476 1013048.4948779264 79.2 50 16 20 4674
626308.020264623 1013063.2984624776 80.3 50 16 24 4674
626260.0138809228 1013041.6924543155 96.1 50 16 28 4674
626205.3303652393 1013049.8003044935 94.5 50 16 32 4674
626158.4266426318 1013051.0881218961 68.0 50 16 36 4674
626144.5517148775 1013025.8093611813 93.6 50 16 40 4674
626072.4084403199 1013040.4301621156 98.5 50 16 44 4674
626031.1448877262 1013051.1244052117 121.1 50 16 48 4674
625995.2884995892 1013034.0138739372 72.9 50 16 52 4674
626008.6775289048 1013066.9653077541 113.3 50 16 56 4674
626017.5657744913 1013057.1188059213 95.0 50 17 00 4674
626015.8284918306 1013057.4560667803 80.3 50 17 08 4674
625996.6681657238 1013059.6840024294 77.5 50 17 13 4674
625966.2554304855 1013065.3704286572 81.1 50 17 16 4674
625926.5524058712 1013055.3469687637 96.6 50 17 21 4674
625922.3917393296 1013040.2837132165 74.5 50 17 24 4674
625916.567742152 1013036.8371660648 63.9 50 17 28 4674
625913.1664021078 1013031.7728043334 72.8 50 17 32 4674
625916.4071040318 1013038.9708571681 61.1 50 17 36 4674
625938.7550098588 1013050.2659705896 68.6 50 17 40 4674
625952.092115006 1013068.4878959839 76.5 50 17 44 4674
625951.5676955158 1013067.5352328599 78.8 50 17 45 4674
625958.6953746505 1013072.2244419049 95.3 50 17 48 4674
625970.9988698238 1013056.1741918984 109.2 50 17 52 4674
625961.0829356166 1013060.9307259426 113.9 50 17 56 4674
625963.9219838765 1013066.5793775572 105.3 50 18 00 4674
625968.2662912736 1013068.8380059958 110.4 50 18 08 4674
625966.1713217011 1013067.6260023279 104.2 50 18 12 4674
625959.0468475923 1013041.2409133752 106.6 51 06 00 4674
625956.4995571227 1013057.8309250482 105.7 51 06 24 4674
625962.4839883489 1013072.9995205556 64.4 51 06 28 4674
625957.6882406892 1013067.5768525978 57.0 51 06 32 4674
625962.6439242907 1013071.086988018 64.7 51 06 40 4674
625971.0077939979 1013067.1659198168 58.9 51 06 44 4674
625951.84318932 1013063.8427229897 62.8 51 06 48 4674
625962.0302053483 1013060.2260296087 72.7 51 06 52 4674
625964.9453338502 1013062.690206057 73.8 51 06 56 4674
625953.6623994391 1013058.4853670847 104.0 51 07 00 4674
625962.483102511 1013056.0364729007 95.5 51 07 36 4674
625957.9592359222 1013058.399536902 87.9 51 07 40 4674
625965.4726843308 1013059.2749499404 104.8 51 07 44 4674
625952.5885776757 1013064.42011663 114.4 51 07 48 4674
625961.2466419921 1013057.834994357 94.6 51 07 52 4674
625971.4934733807 1013049.2423722579 99.3 51 07 56 4674
625972.4465807235 1013070.8417771431 120.3 51 08 00 4674
625978.1803642324 1013061.2174335049 92.4 51 08 40 4674
625998.2258839722 1013077.7578195638 107.6 51 08 44 4674
626002.8471166611 1013068.9814021166 92.3 51 08 48 4674
626030.8986853142 1013055.9670460321 143.3 51 08 52 4674
626028.1307240521 1013059.0434164285 113.6 51 08 56 4674
626023.8310660305 1013060.0138739723 106.6 51 09 01 4674
626013.4717366351 1013055.6350332006 93.4 51 09 04 4674
626009.55730224 1013059.857786843 95.9 51 09 08 4674
626004.9613263024 1013053.8164986949 106.3 51 09 12 4674
626013.3481689407 1013049.5858863445 100.9 51 09 16 4674
626010.657868923 1013052.4302863921 104.7 51 09 20 4674
626118.912953705 1013043.719001626 124.6 51 09 24 4674
626142.0037244796 1012994.3852999122 80.2 51 09 29 4674
626123.7452825528 1013023.8962731615 162.3 51 09 32 4674
626130.5196216507 1013011.8977849997 113.5 51 10 00 4674
626055.2616060848 1012990.1608691385 93.5 51 10 40 4674
626061.0814333941 1013022.4799942343 120.1 51 10 44 4674
626020.1335548027 1013051.343632592 95.4 51 10 48 4674
626032.9117869635 1013051.8377541477 119.8 51 10 52 4674
626024.3816327569 1013056.2116602814 107.4 51 10 56 4674
626029.1135573824 1013029.9528213048 86.9 51 11 00 4674
626024.3096474566 1013044.324027466 101.3 51 11 04 4674
626021.329732738 1013058.7342233239 104.8 51 11 08 4674
626021.8879718125 1013045.6322144615 122.6 51 11 12 4674
626038.1238355275 1013054.2097378591 105.6 51 11 17 4674
626043.5358021015 1013062.8080421663 95.2 51 11 21 4674
626064.5538968254 1013077.5933367081 103.7 51 11 24 4674
626074.6982775733 1013080.4565536743 92.5 51 11 28 4674
626121.2134595654 1013070.0555661513 107.7 51 11 32 4674
626143.9108495286 1013071.6761232205 110.6 51 11 36 4674
626129.0155867725 1013073.4421102437 113.2 51 11 41 4674
626134.6563930169 1013075.7491276477 93.2 51 11 44 4674
626135.8598539274 1013063.6333413182 76.0 51 11 48 4674
626140.5523156801 1013063.5377354425 86.0 51 11 52 4674
626139.2342271638 1013056.478490816 25.7 51 11 56 4674
626146.5385452206 1013067.7920742858 62.6 51 12 00 4674
626148.3507115016 1013061.2072575319 88.3 51 12 08 4674
626147.0556026505 1013057.2775150954 93.6 51 12 12 4674
626124.9650038674 1013061.785054912 98.8 51 12 52 4674
626137.5326820856 1013052.5032196004 87.0 51 12 56 4674
626143.4778667664 1013059.2897210532 83.3 51 13 00 4674
626145.6173513966 1013060.324947941 59.8 51 13 08 4674
626140.9587801602 1013053.2439845357 98.1 51 13 12 4674
626156.2718315878 1013072.0694315674 97.1 51 13 52 4674
626122.9274440235 1013042.5817732076 28.1 51 13 56 4674
626128.9993287373 1013047.5440974255 66.7 51 14 00 4674
626138.6585667257 1013061.2537329509 72.0 51 14 08 4674
626105.4233216471 1013093.9901021778 89.1 51 14 12 4674
626080.7143216565 1013096.0344221671 51.6 51 14 16 4674
626063.5556074469 1013090.848756124 101.4 51 14 20 4674
626023.0842442545 1013056.4397428619 92.8 51 14 24 4674
626013.9758242571 1013059.5180155438 99.3 51 14 28 4674
626016.3910932629 1013056.7722613555 91.6 51 14 32 4674
626012.247164039 1013050.2569173397 102.6 51 14 36 4674
626024.9606159133 1013043.4967492196 104.7 51 14 40 4674
626011.3909943908 1013043.0664559706 79.9 51 14 44 4674
626026.4301089207 1013058.2196985153 81.7 51 14 48 4674
626014.8147819235 1013051.4261981297 96.1 51 14 52 4674
626029.1985752785 1013041.1991288912 95.2 51 14 56 4674
625995.136989126 1012957.436406891 115.1 51 15 00 4674
625950.1587539286 1012937.2337790922 69.7 51 15 08 4674
625944.4483468428 1012949.8659906351 116.1 51 15 12 4674
625907.4735353659 1012942.306143755 75.5 51 15 16 4674
625904.2313798487 1012956.2621281922 109.7 51 15 20 4674
625872.7939938806 1012942.0740663977 100.1 51 15 24 4674
625860.0761656165 1012939.8551389114 87.7 51 15 28 4674
625839.4408159526 1012932.513253849 74.4 51 15 32 4674
625849.0460806821 1012901.0836995802 101.3 51 15 36 4674
625833.5111846079 1012900.1053735731 58.9 51 15 40 4674
625836.3959797566 1012887.9396516324 92.4 51 15 44 4674
625823.6406192823 1012883.6969973077 93.7 51 15 48 4674
625806.2592949104 1012862.1006182046 106.3 51 15 52 4674
625798.351074523 1012864.408700195 105.5 51 15 56 4674
625800.5450273622 1012865.5988917273 112.7 51 16 00 4674
625827.4902447698 1012806.6125844779 119.3 51 16 08 4674
625846.5979531269 1012807.137837836 124.0 51 16 12 4674
625851.7588639245 1012825.5880217603 130.7 51 16 16 4674
625873.0207039944 1012843.2601128898 108.5 51 16 20 4674
625869.3341771549 1012848.3793078111 117.6 51 16 24 4674
625874.8610103896 1012841.6293817257 94.8 51 16 28 4674
625911.4478004763 1012860.6440833793 118.5 51 16 44 4674
625918.1392552904 1012853.9531619459 122.3 51 16 48 4674
625913.2426374129 1012849.1383752885 125.0 51 16 52 4674
625908.8201480267 1012843.8164293203 121.8 51 16 56 4674
625918.2657994237 1012841.8228899534 119.5 51 17 00 4674
625923.3934605361 1012836.1996187391 125.5 51 17 08 4674
625924.4230783305 1012837.242354359 126.7 51 17 12 4674
625925.0948974781 1012836.7689982365 126.5 51 17 16 4674
625935.3701554898 1012836.5142181299 129.7 51 17 20 4674
625945.480060493 1012829.524564169 133.7 51 17 24 4674
625945.8252826408 1012834.9883384263 121.2 51 17 28 4674
625953.0836380348 1012840.064988414 96.5 51 17 32 4674
625955.0190142426 1012829.2895594458 111.7 51 17 36 4674
625932.9262188672 1012810.309924598 113.8 51 17 48 4674
625915.1129098136 1012810.4964663793 156.4 51 17 52 4674
625891.2059921019 1012805.6211448177 161.5 51 17 56 4674
625895.3161894935 1012805.4904779261 157.1 51 18 00 4674
625888.3046473468 1012805.7224870571 158.4 51 18 08 4674
625889.7916688585 1012808.0604690381 160.7 51 18 12 4674
625886.9562877212 1012804.7008538186 149.1 51 18 16 4674
625889.7294662318 1012803.4380088147 154.7 51 18 20 4674
625890.5520626912 1012803.9271819653 155.2 51 18 24 4674
625888.2435074757 1012807.6685080228 140.7 52 06 28 4674
625893.0192504346 1012802.1325767713 132.9 52 06 32 4674
625884.3304290408 1012801.1096870707 124.8 52 06 36 4674
625876.2357096223 1012810.2178581652 131.6 52 06 40 4674
625884.6534050562 1012810.111962637 118.5 52 06 44 4674
625881.0378517808 1012824.0004112191 150.7 52 06 48 4674
625873.651006524 1012821.3119042342 112.1 52 06 52 4674
625866.643838078 1012823.6228427937 109.2 52 07 00 4674
625866.8227333196 1012808.8498672721 101.9 52 07 08 4674
625840.8506228563 1012803.757899695 136.2 52 07 12 4674
625828.3217892007 1012807.743151119 119.9 52 07 16 4674
625817.7961869488 1012834.86820284 111.6 52 07 20 4674
625793.5191586209 1012853.0698920897 106.6 52 07 24 4674
625793.6076038372 1012866.7157953128 102.8 52 07 28 4674
625791.1860176574 1012885.2634819451 86.7 52 07 32 4674
625783.599063224 1012893.6655685855 91.1 52 07 36 4674
625792.1130742305 1012908.1786916777 78.9 52 07 40 4674
625777.7395444559 1012956.6335225576 105.3 52 07 49 4674
625786.6265825053 1012957.5132690894 123.6 52 07 52 4674
625781.2545848739 1012946.6924703239 80.0 52 08 00 4674
625813.8693745156 1012912.0408336672 110.8 52 08 24 4674
625821.4231858362 1012886.4323342649 92.7 52 08 28 4674
625831.3872675463 1012873.4597904203 91.8 52 08 32 4674
625832.0549334034 1012843.2181714275 111.1 52 08 36 4674
625851.4099992422 1012838.52482068 119.6 52 08 40 4674
625860.6291482357 1012814.4808099382 121.4 52 08 48 4674
625835.4985886139 1012810.8290698841 119.5 52 08 52 4674
625857.0571356043 1012807.7903813899 116.5 52 08 56 4674
625876.5949229186 1012787.1298081467 120.5 52 09 00 4674
625875.2629466301 1012791.3165657747 166.9 52 09 08 4674
625835.2392050679 1012785.2952265451 112.6 52 09 12 4674
625834.3249143013 1012792.9002491592 130.2 52 09 16 4674
625832.031981633 1012788.2817483536 115.5 52 09 20 4674
625827.3731442922 1012808.8791102599 124.7 52 09 24 4674
625797.334153739 1012824.8397958053 120.8 52 09 28 4674
625788.4352055634 1012841.5091222905 106.6 52 09 32 4674
625765.8811784028 1012839.6901992643 97.3 52 09 36 4674
625755.5324836798 1012845.7613180331 122.2 52 09 40 4674
625740.4721366822 1012840.6820088504 97.7 52 09 44 4674
625723.3322699498 1012829.525230272 154.9 52 09 48 4674
625730.0095353732 1012844.5632799668 131.4 52 09 53 4674
625687.7726178961 1012836.5003688112 73.2 52 09 57 4674
625690.1936994917 1012842.2914188831 108.5 52 10 00 4674
625722.1746156461 1012854.9218616664 59.2 52 10 08 4674
625703.1743849198 1012872.4437241063 97.9 52 10 13 4674
625748.7172983316 1012877.5425601434 112.8 52 10 32 4674
625764.4350277657 1012897.0436492232 104.9 52 10 36 4674
625764.7548751675 1012882.8572020393 85.8 52 10 40 4674
625773.9421748464 1012882.6210367313 92.0 52 10 44 4674
625795.7463535351 1012874.8944925262 102.9 52 10 48 4674
625818.3841513126 1012891.8189864382 112.9 52 10 52 4674
625828.7258301359 1012898.3097974064 110.5 52 10 56 4674
625845.248061642 1012889.449606666 133.6 52 11 00 4674
625847.3945101507 1012819.2599873323 69.7 52 11 08 4674
625855.0765292426 1012860.3982422774 114.2 52 11 12 4674
625871.2731159573 1012860.6377926389 116.6 52 11 16 4674
625871.376859009 1012848.7617846713 106.6 52 11 20 4674
625863.123126035 1012852.5947643799 107.4 52 11 25 4674
625862.378154634 1012851.8846779718 113.3 52 11 29 4674
625865.4647762913 1012869.5210249367 122.5 52 11 32 4674
625864.8394077283 1012865.7592993639 121.5 52 11 33 4674
625862.9649908417 1012853.9433421621 105.5 52 11 36 4674
625864.0215504824 1012853.4269778109 114.6 52 11 40 4674
625864.695410374 1012852.3122607977 104.5 52 11 44 4674
625872.1722935914 1012843.9761845237 119.5 52 11 48 4674
625877.6590343813 1012825.6594179039 115.7 52 11 52 4674
625868.9492424646 1012810.5153435633 106.0 52 11 56 4674
625839.5901081922 1012806.208772919 120.2 52 12 00 4674
625857.1486366022 1012768.6894354353 157.2 52 12 08 4674
625867.4890442892 1012754.8776829047 133.6 52 12 12 4674
625858.1867590246 1012739.4442187492 129.1 52 12 16 4674
625867.8498268516 1012727.8419179498 120.8 52 12 20 4674
625867.1131479392 1012717.6219419024 95.9 52 12 25 4674
625873.0902172335 1012735.1347919891 135.4 52 12 28 4674
625915.6772858835 1012747.1467284642 133.6 52 12 32 4674
625958.1440205056 1012762.431512278 112.0 52 12 36 4674
625972.0755899568 1012759.65609476 122.0 52 12 40 4674
625992.950959893 1012774.462986579 115.8 52 12 44 4674
626016.2804266149 1012795.0278981389 97.0 52 12 48 4674
