627162.6462409742 1013454.9517374522 82.9 17 06 52 4690
627159.8712301557 1013460.1954002862 94.0 17 06 56 4690
627159.8899412806 1013457.79585449 95.2 17 07 00 4690
627163.5980125399 1013466.5105071701 95.6 17 07 08 4690
627156.9778735747 1013464.6535578211 99.3 17 07 12 4690
627162.2289196867 1013458.2899382269 97.4 17 07 16 4690
627145.7984230681 1013472.7452782723 103.6 17 07 20 4690
627107.4196877187 1013447.4756957869 96.6 17 07 24 4690
627112.0420477666 1013431.5890320297 95.2 17 07 28 4690
627120.7590760936 1013430.6329059101 100.2 17 07 32 4690
627120.6525400514 1013426.1761526201 94.5 17 07 36 4690
627121.0705692789 1013422.6167923303 98.3 17 07 40 4690
627120.7702916602 1013420.3157434175 97.2 17 07 44 4690
627126.3465336803 1013422.1693268846 107.9 17 07 48 4690
627123.5926945034 1013420.8334959818 99.7 17 07 52 4690
627125.2401482265 1013421.0931324455 96.0 17 07 56 4690
627119.7591380479 1013420.3788388704 102.3 17 08 00 4690
627117.2872281173 1013420.2160730656 99.2 17 08 08 4690
627117.144578641 1013430.4001155121 103.5 17 08 12 4690
627120.082055096 1013432.7207069029 95.5 17 08 16 4690
627077.091658625 1013402.9135668465 99.9 17 08 20 4690
627070.8135701607 1013373.2798152214 117.7 17 08 24 4690
627075.5623054404 1013369.347348832 108.4 17 08 28 4690
627088.7929108039 1013376.0800434772 114.7 17 08 32 4690
627077.6915838437 1013366.7113132396 120.1 17 08 36 4690
627089.4423711383 1013372.3113238893 106.5 17 08 40 4690
627087.4806245257 1013367.2735838641 108.5 17 08 44 4690
627082.8831304079 1013372.0137759045 121.5 17 08 48 4690
627090.4902673403 1013353.9914403874 104.8 17 08 52 4690
627090.6469526157 1013349.6903476417 100.0 17 08 56 4690
627092.0826391962 1013354.2951302783 57.8 17 09 00 4690
627098.0597112075 1013344.2736094883 71.7 17 09 08 4690
627092.2120458413 1013358.4755042199 113.1 17 09 12 4690
627057.4324225894 1013351.8504440765 121.6 17 09 16 4690
627045.963702902 1013350.7962252048 105.5 17 09 20 4690
627028.1994801594 1013363.1131147058 114.9 17 09 24 4690
627038.8587614524 1013424.530826451 100.0 17 09 28 4690
627033.4157714896 1013429.0803168913 100.9 17 09 32 4690
627040.2851680727 1013428.6047889085 85.5 17 09 36 4690
627060.7242702958 1013479.7588798581 96.6 17 09 40 4690
627058.1862206386 1013486.4961519772 108.1 17 09 44 4690
627068.6333223659 1013514.7721095191 115.8 17 09 48 4690
627066.5418515629 1013522.7382653165 109.9 17 09 52 4690
627064.6426301574 1013511.9284040142 113.2 17 09 56 4690
627060.7041749144 1013527.0100292964 119.4 17 10 00 4690
627063.3794920983 1013508.3415208006 107.5 17 10 08 4690
627056.0993726808 1013479.356973853 114.1 17 10 12 4690
627055.1969670526 1013476.3573299184 104.7 17 10 16 4690
627057.932631855 1013476.5098823571 111.5 17 10 20 4690
627057.7325281149 1013477.228014627 109.4 17 10 24 4690
627061.4293452223 1013489.4480331555 90.5 17 10 28 4690
627056.9662152719 1013469.4959463577 97.3 17 10 32 4690
627061.8713371572 1013492.1033959184 107.5 17 10 36 4690
627060.2117243868 1013492.2086395912 102.7 17 10 40 4690
627062.112798944 1013488.7756876849 109.3 17 10 44 4690
627064.416996003 1013496.6675154195 107.5 17 10 48 4690
627063.5969870083 1013495.3821399214 100.8 17 10 52 4690
627043.8082625691 1013477.769317983 103.9 17 10 56 4690
627049.3708156158 1013514.6327554143 116.2 17 11 00 4690
627092.8344675013 1013564.6666495734 98.7 17 11 08 4690
627136.4324652409 1013480.7211977638 96.4 17 11 12 4690
627167.9872789497 1013454.7698816982 104.7 17 11 16 4690
627160.3822432193 1013461.8889330187 97.8 17 11 20 4690
627159.246277533 1013473.4188673196 94.9 17 11 24 4690
627183.418723026 1013477.5881649364 87.2 17 11 28 4690
627196.1746950247 1013478.1379006496 114.3 17 11 33 4690
627179.7312200953 1013489.7954879286 91.8 17 11 36 4690
627183.6532393887 1013469.5939184852 72.3 17 11 40 4690
627177.1629955347 1013471.7625295148 93.9 17 11 44 4690
627188.6957964236 1013473.3809604739 94.3 17 11 45 4690
627160.2029943764 1013469.7838340229 105.9 17 11 48 4690
627179.9651157802 1013475.1663836759 85.2 17 11 52 4690
627185.5630864851 1013473.6805026708 100.0 17 11 56 4690
627185.3562762857 1013445.7581517457 26.0 17 12 04 4690
627176.2038053048 1013469.3377197315 124.7 17 12 08 4690
627170.6752701156 1013476.5629756928 95.0 17 12 12 4690
627176.5550049952 1013483.1282920466 144.8 17 12 16 4690
627189.9423967648 1013485.515701921 98.4 17 12 20 4690
627189.562087147 1013501.2501446696 160.4 17 12 24 4690
627189.1754957613 1013491.6283588113 119.8 17 12 29 4690
627199.3002255294 1013476.6551201837 81.2 17 12 32 4690
627200.8541918305 1013475.2336289367 88.7 17 12 36 4690
627202.3351784965 1013476.0014053627 44.3 17 12 40 4690
627200.0556649863 1013463.8633377966 75.9 17 12 44 4690
627210.9174400837 1013489.5973181443 90.3 17 12 48 4690
627211.0572731519 1013497.3605505353 95.2 17 12 52 4690
627212.0933530341 1013506.6195114328 87.0 17 12 56 4690
627233.7300927767 1013506.5454282983 74.7 17 13 00 4690
627232.2011201347 1013517.2668567512 93.3 17 13 08 4690
627232.1069958346 1013515.7847688895 94.3 17 13 12 4690
627237.3193393918 1013521.4411834002 88.7 17 13 16 4690
627236.2255506855 1013519.8674113404 89.5 17 13 20 4690
627236.7908407935 1013518.3542727816 89.3 17 13 24 4690
627238.3271592243 1013519.0005900138 86.4 17 13 28 4690
627240.8231058631 1013518.5220721214 87.9 17 13 32 4690
627242.4237684829 1013516.2492595325 95.2 17 13 36 4690
627238.0134796995 1013517.4514464559 87.5 17 13 40 4690
627257.6306716845 1013513.2351453301 81.9 17 13 44 4690
627252.3551988947 1013523.7675769348 72.9 17 13 48 4690
627227.3743355399 1013535.1986013183 83.9 17 13 52 4690
627203.6750159062 1013554.7393490389 73.6 17 13 56 4690
627188.4390115514 1013597.5182935478 71.7 17 14 00 4690
627155.5484139562 1013615.1717130279 75.4 17 14 08 4690
627130.4485194272 1013622.6436081353 78.4 17 14 12 4690
627122.5238375068 1013623.2484176025 102.6 17 14 16 4690
627105.2958862039 1013615.7730040124 68.9 17 14 20 4690
627125.6507895967 1013648.6368011645 70.6 17 14 24 4690
627102.367427442 1013655.0529798664 81.4 17 14 28 4690
627090.2402741677 1013653.7533401108 77.5 17 14 32 4690
627176.7002481236 1013646.2356376387 71.9 17 14 36 4690
627242.6211885465 1013663.0682349206 75.7 17 14 40 4690
627254.0509756785 1013665.946983783 62.4 17 14 44 4690
627285.6290972118 1013687.3134440804 58.1 17 14 48 4690
627313.3904181053 1013716.6626380461 62.4 17 14 52 4690
627343.2180192622 1013718.5944298492 62.3 17 14 56 4690
627344.5821415591 1013714.706376249 63.1 17 15 00 4690
627312.1741246564 1013725.8258820827 139.5 17 15 08 4690
627335.5808733726 1013722.0420532523 90.4 17 15 12 4690
627337.1048302753 1013719.702648748 76.9 17 15 16 4690
627337.8818785123 1013710.4495239687 66.8 17 15 20 4690
627328.11719701 1013715.9913294816 68.0 17 15 24 4690
627326.9923519077 1013717.2372689076 63.9 17 15 28 4690
627328.7037983729 1013718.0942592956 66.7 17 15 32 4690
627325.2792556242 1013713.483051195 60.0 17 15 36 4690
627329.1547310736 1013711.1512262314 60.6 17 15 40 4690
627333.643533027 1013699.2229480264 61.0 17 15 44 4690
627334.0523888781 1013674.6531683614 70.1 17 15 48 4690
627335.3751693517 1013673.3636346189 73.5 17 15 52 4690
627332.6271739956 1013673.6312291297 73.0 17 15 56 4690
627333.0082754325 1013674.716151337 67.3 17 16 00 4690
627335.0068029779 1013671.7369065491 74.3 17 16 08 4690
627333.0386999911 1013672.095479797 68.9 17 16 12 4690
627355.6007354966 1013640.6194525571 77.7 17 16 16 4690
627351.4465667051 1013637.3660369324 96.3 17 16 20 4690
627348.1651976049 1013636.0616610324 82.9 17 16 24 4690
627344.3480237256 1013630.5313641013 83.0 17 16 28 4690
627346.9177120794 1013631.037262216 72.1 17 16 32 4690
627356.4939730477 1013626.0035237379 86.2 17 16 36 4690
627346.3380919676 1013599.4976931894 91.0 17 16 40 4690
627370.9382169616 1013556.1960714804 90.4 17 16 44 4690
627388.6492310178 1013512.6842582917 116.1 17 16 48 4690
627374.6878220016 1013514.5191220727 99.4 17 16 52 4690
627414.2764996747 1013508.6864570216 121.6 17 16 56 4690
627419.032401215 1013509.3542227721 120.7 17 17 00 4690
627412.9210670331 1013509.876360835 119.9 17 17 08 4690
627413.5301755423 1013508.4075976447 121.2 17 17 12 4690
627451.3196782273 1013576.6031663473 86.6 17 17 16 4690
627457.9843512806 1013598.7077006496 97.1 17 17 20 4690
627469.5407662416 1013603.2124611979 100.5 17 17 24 4690
627466.4319991348 1013609.7156537258 99.9 17 17 28 4690
627470.3449527712 1013612.8024323366 91.7 17 17 32 4690
627464.8452389421 1013614.487634876 89.6 17 17 36 4690
627452.5945219353 1013610.6109472397 94.9 17 17 40 4690
627406.327492766 1013584.9727814937 91.7 17 17 44 4690
627417.8981951681 1013564.6079000635 101.7 17 17 48 4690
627407.0831306293 1013561.919076351 107.8 17 17 52 4690
627430.1417899417 1013563.8843809885 104.2 17 17 56 4690
627431.1780960785 1013525.3612948256 119.4 17 18 00 4690
627442.0042517199 1013565.4928958972 105.0 18 06 08 4690
627445.1600788969 1013568.2454856985 103.8 18 06 12 4690
627443.4093854369 1013572.740486082 119.4 18 06 16 4690
627400.1806934446 1013576.0511869711 93.1 18 06 20 4690
627347.3270744809 1013582.4492914991 83.9 18 06 24 4690
627321.5978790255 1013560.1285260532 92.6 18 06 28 4690
627256.8884357748 1013477.570395322 89.8 18 06 32 4690
627168.5515341107 1013467.2341680811 95.2 18 06 36 4690
627157.944333207 1013461.4055890666 99.4 18 06 40 4690
627135.2704050783 1013473.0431430205 100.2 18 06 44 4690
627116.036942566 1013487.7769845698 111.3 18 06 48 4690
627100.0027930278 1013481.5107541517 110.9 18 06 52 4690
627101.4429218966 1013481.316341292 110.4 18 06 56 4690
627153.5748923037 1013466.9869217377 97.5 18 07 00 4690
627151.7491417177 1013464.0838260492 82.0 18 07 08 4690
627157.9992864635 1013471.645559308 87.9 18 07 12 4690
627164.9240138036 1013471.0485927772 96.5 18 07 16 4690
627154.0125449252 1013467.5744090738 97.3 18 07 20 4690
627153.5908150744 1013455.2101049778 100.0 18 07 24 4690
627150.9457530922 1013457.6343730441 102.1 18 07 28 4690
627141.2696720125 1013459.5384016191 107.0 18 07 32 4690
627153.1016285291 1013456.9778254151 90.5 18 07 36 4690
627151.7570774253 1013461.6178970793 85.9 18 07 40 4690
627153.9173453453 1013452.7673174764 104.6 18 07 44 4690
627155.7444248343 1013465.5010613512 96.1 18 07 48 4690
627157.7001943198 1013465.5626460173 103.5 18 07 52 4690
627141.1254426629 1013473.6259462163 108.4 18 07 56 4690
627143.5648820985 1013473.633796181 113.0 18 08 00 4690
627139.127107529 1013473.132959781 112.1 18 08 08 4690
627128.4967546712 1013488.1598745411 101.3 18 08 12 4690
627122.0444682556 1013529.7617691131 83.0 18 08 16 4690
627121.6026290951 1013523.6452229908 96.1 18 08 20 4690
627128.2152222339 1013462.9575788354 90.2 18 08 24 4690
627110.9896248919 1013447.8963296742 98.7 18 08 28 4690
627110.8355372641 1013447.9732405979 98.0 18 08 32 4690
627090.7387964111 1013447.5436763722 103.3 18 08 36 4690
627045.3895185945 1013443.9366527082 102.3 18 08 40 4690
627036.1868438761 1013411.3852278392 105.5 18 08 44 4690
627036.7195496822 1013406.333394505 112.6 18 08 48 4690
627034.7766536262 1013409.1027280064 86.5 18 08 52 4690
627038.7131221173 1013404.8911945097 87.4 18 08 56 4690
627030.8660807558 1013384.7513055692 85.2 18 09 00 4690
627047.6022997597 1013394.8237408021 98.9 18 09 08 4690
627038.6364075182 1013394.5737521577 101.5 18 09 12 4690
627039.1179289627 1013419.1131967361 100.1 18 09 16 4690
627041.1552439149 1013421.1544352133 97.4 18 09 20 4690
627041.1691501702 1013423.6646658537 108.5 18 09 24 4690
627037.1878020499 1013424.7466158364 111.8 18 09 28 4690
627042.0778848922 1013421.2790406728 103.2 18 09 32 4690
627051.3771202286 1013413.5461630995 111.5 18 09 36 4690
627038.3830901665 1013422.0965178004 107.7 18 09 48 4690
627044.1257237275 1013420.0471191594 92.8 18 09 52 4690
627045.5682384487 1013422.5287689738 106.7 18 09 56 4690
627041.8854609397 1013419.6086507272 107.7 18 10 00 4690
627043.3136807788 1013423.1186566489 106.8 18 10 08 4690
627046.1792909751 1013423.8687623555 99.2 18 10 12 4690
627044.333082618 1013420.4901093928 104.2 18 10 16 4690
627048.0590279612 1013416.8197462402 103.1 18 10 20 4690
627045.3536677274 1013434.5813949542 100.3 18 10 24 4690
627061.3478714954 1013436.1920157697 125.6 18 10 28 4690
627052.4280437247 1013445.54059156 102.5 18 10 32 4690
627061.4481926989 1013490.4212055911 105.0 18 10 36 4690
627075.4534752292 1013539.8516761685 114.7 18 10 40 4690
627072.6858400878 1013549.6402416709 108.4 18 10 44 4690
627079.3507508278 1013622.9768165998 86.3 18 10 48 4690
627047.1668581736 1013687.4193670702 112.8 18 10 52 4690
627040.8778286232 1013688.5381238674 114.0 18 10 56 4690
627029.1844962542 1013682.186350364 122.5 18 11 00 4690
627030.3017201487 1013669.6390122657 122.5 18 11 08 4690
627017.7296697312 1013676.8416337623 111.7 18 11 12 4690
627019.4633487684 1013677.6212745338 109.0 18 11 16 4690
627034.285818333 1013691.6131890262 109.8 18 11 20 4690
627036.5603821523 1013688.2146124243 109.0 18 11 24 4690
627041.5623464924 1013684.1170896094 95.4 18 11 28 4690
627045.8219005625 1013681.941287144 82.3 18 11 32 4690
627073.3963910051 1013687.4373871698 107.2 18 11 36 4690
627065.3817620157 1013678.4324366774 111.0 18 11 40 4690
627067.1062411702 1013664.9913461766 88.8 18 11 44 4690
627063.3114361484 1013662.7454056246 132.0 18 11 48 4690
627064.3515648597 1013663.9209088002 134.9 18 11 49 4690
627050.0765532567 1013664.2067373683 84.8 18 11 52 4690
627055.6688374232 1013661.062110127 100.0 18 11 56 4690
627051.2290533824 1013671.4424346313 123.7 18 12 00 4690
627036.5538751606 1013669.7365246589 137.0 18 12 08 4690
627043.4812302408 1013671.7271427945 133.3 18 12 12 4690
627040.1380878893 1013665.7118487336 107.3 18 12 16 4690
627077.2216580096 1013666.5499017261 107.5 18 12 20 4690
627074.7545303976 1013664.9053678958 99.9 18 12 21 4690
627063.5922664483 1013657.4273676737 88.8 18 12 24 4690
627079.2908117763 1013675.7679474974 105.6 18 12 28 4690
627055.4733174287 1013670.6046126545 97.8 18 12 32 4690
627056.7847843682 1013659.1637079918 86.0 18 12 36 4690
627066.0114624056 1013653.4763529678 77.8 18 12 40 4690
627062.0499783664 1013655.2218469939 88.1 18 12 45 4690
627064.8532258485 1013665.1057380653 96.1 18 12 48 4690
627060.8969102447 1013648.1630768924 62.0 18 12 52 4690
627058.103917917 1013676.0868281958 96.6 18 12 56 4690
627051.0642297888 1013664.6080051863 86.5 18 13 00 4690
627049.9563909073 1013667.4021387587 99.3 18 13 08 4690
627050.261577976 1013664.7602369227 90.6 18 13 12 4690
627046.2169194089 1013661.6177893196 79.7 18 13 16 4690
627045.1905495613 1013673.2475983719 107.7 18 13 20 4690
627047.737902896 1013677.2809356172 103.0 18 13 24 4690
627044.0208327302 1013685.0317596706 112.2 18 13 28 4690
627046.6348657 1013678.5822425953 117.3 18 13 32 4690
627046.7284660297 1013666.5624004542 128.3 18 13 36 4690
627025.2793835959 1013693.7405535029 111.0 18 13 40 4690
627049.6524423629 1013686.741759778 118.5 18 13 44 4690
627048.578744134 1013685.7541365093 108.5 18 13 48 4690
627043.8593141128 1013684.0028378952 110.0 18 13 52 4690
627041.9698051345 1013690.6758469881 94.5 18 13 56 4690
627040.4679514612 1013682.7313088225 87.4 18 14 00 4690
627044.6519373269 1013683.5520054133 102.1 18 14 08 4690
627052.0516843376 1013685.5773189808 102.3 18 14 12 4690
627041.002613002 1013687.3221353614 84.2 18 14 16 4690
627053.8592614984 1013680.4632372631 104.3 18 14 20 4690
627062.2867164663 1013643.1140001061 86.1 18 14 24 4690
627117.8505224709 1013603.7490221226 87.4 18 14 28 4690
627111.3638609514 1013584.321200111 78.3 18 14 32 4690
627117.5435178481 1013586.4642372659 83.1 18 14 36 4690
627110.984104509 1013582.8160778406 78.5 18 14 40 4690
627164.3735518863 1013539.6512279509 73.2 18 14 44 4690
627157.950675192 1013527.7209893909 79.2 18 14 48 4690
627161.7742658933 1013514.1981904273 86.0 18 14 52 4690
627161.9711683195 1013514.4752764858 84.3 18 14 56 4690
627176.5343095935 1013506.6266731208 86.0 18 15 00 4690
627165.9229856662 1013464.527533407 90.1 18 15 08 4690
627152.6321491014 1013456.0363767429 96.9 18 15 12 4690
627157.047762709 1013460.0093840403 90.1 18 15 16 4690
627154.1592062119 1013449.3179711257 74.8 18 15 20 4690
627156.3104691976 1013412.5346223762 101.8 18 15 24 4690
627153.514319463 1013424.3467243137 83.0 18 15 28 4690
627167.8657358511 1013410.5924114871 93.3 18 15 32 4690
627190.9163790896 1013374.1085485939 94.7 18 15 36 4690
627192.9471954964 1013347.4429655479 88.6 18 15 40 4690
627209.9904462913 1013344.0587611787 88.9 18 15 44 4690
627271.7594892952 1013346.8452526467 93.0 18 15 48 4690
627319.7288428285 1013304.6693855338 104.0 18 15 52 4690
627374.5393444704 1013264.008457096 109.7 18 15 56 4690
627466.3490287319 1013288.0019916908 121.2 18 16 00 4690
627490.355792537 1013302.6871878749 112.1 18 16 08 4690
627486.003227562 1013292.79825995 120.7 18 16 12 4690
627475.338509313 1013301.3891765209 120.2 18 16 16 4690
627485.8127868946 1013304.1432592361 116.5 18 16 20 4690
627490.0180372943 1013298.384496092 110.8 18 16 24 4690
627490.4316770519 1013299.6022219117 113.7 18 16 28 4690
627492.2838856875 1013297.706203765 120.7 18 16 32 4690
627492.385993674 1013300.1171996896 117.0 18 16 36 4690
627489.0311033468 1013297.7510002139 111.4 18 16 40 4690
627489.6464608503 1013297.7529854486 116.8 18 16 44 4690
627489.0374541685 1013299.1885741045 111.7 18 16 48 4690
627523.5183239593 1013330.2956961426 124.0 18 16 52 4690
627523.3986966357 1013333.3141726231 129.1 18 16 56 4690
627517.8705442719 1013333.5838436817 119.7 18 17 00 4690
627524.5054953208 1013344.4753719491 120.9 18 17 08 4690
627526.5541798285 1013339.5832431208 124.0 18 17 12 4690
627528.0113700834 1013340.9149183963 116.5 18 17 16 4690
627527.6107873212 1013342.4617602713 126.2 18 17 20 4690
627526.88968495 1013341.1766929477 122.7 18 17 24 4690
627525.4264607707 1013345.1197141601 119.3 18 17 28 4690
627527.7067219357 1013343.3798925701 121.6 18 17 32 4690
627523.0358534807 1013343.5970389029 121.7 18 17 36 4690
627525.4161503008 1013344.9095768972 123.0 18 17 40 4690
627524.3979654576 1013343.7451900251 118.9 18 17 44 4690
627523.7844285872 1013343.1792466994 115.2 18 17 48 4690
627524.0573571705 1013343.7330327166 121.9 18 17 52 4690
627524.7887372132 1013341.8333990199 120.0 18 17 56 4690
627512.3779215899 1013343.2751348928 116.0 18 18 00 4690
627437.5199294206 1013565.7991155263 107.7 19 06 08 4690
627438.702472998 1013567.1077862113 107.2 19 06 12 4690
627444.5360154903 1013557.3180667796 110.3 19 06 16 4690
627446.5630276371 1013555.7322388437 105.1 19 06 20 4690
627446.3730832856 1013553.2988434404 107.1 19 06 24 4690
627412.2001066494 1013559.657609557 106.0 19 06 28 4690
627406.6918613932 1013560.5797842431 112.1 19 06 32 4690
627430.9241456902 1013563.2123602412 114.6 19 06 36 4690
627461.1065892027 1013482.4418162873 112.5 19 06 40 4690
627552.1170075571 1013461.11692578 84.7 19 06 44 4690
627588.3557408857 1013410.5877986687 101.7 19 06 48 4690
627648.743963915 1013412.1982775546 99.1 19 06 52 4690
627737.139108605 1013390.9648545268 104.6 19 06 56 4690
627736.5732685307 1013385.8431192564 111.4 19 07 00 4690
627731.3969146385 1013382.6637659478 96.7 19 07 08 4690
627742.2785579241 1013385.1649019967 99.6 19 07 12 4690
627743.9049648519 1013385.1369855909 96.3 19 07 16 4690
627742.0502300877 1013384.4122121922 87.5 19 07 20 4690
627742.2312655633 1013382.7983130026 93.8 19 07 24 4690
627743.536159396 1013387.0488467894 87.6 19 07 28 4690
627735.9146512691 1013389.0257265393 94.8 19 07 32 4690
627720.2557948481 1013385.6466178558 107.3 19 07 36 4690
627726.7028034657 1013379.8730061585 95.2 19 07 40 4690
627739.6224853812 1013333.1942452288 103.6 19 07 44 4690
627728.0298861357 1013319.4668303261 103.4 19 07 48 4690
627671.9255649494 1013270.7072509715 111.0 19 07 52 4690
627656.3858930436 1013257.6305980438 92.7 19 07 56 4690
627591.1566566804 1013223.7701276568 113.3 19 08 00 4690
627524.294712077 1013099.9026071593 116.4 19 08 08 4690
627521.358762687 1013103.9182842898 115.5 19 08 12 4690
627525.7264388825 1013098.9119972015 118.7 19 08 16 4690
627524.461467321 1013102.7119034041 122.8 19 08 20 4690
627526.402450447 1013103.9566734234 114.9 19 08 24 4690
627526.4713075454 1013103.0501311144 117.9 19 08 28 4690
627525.4390234103 1013092.6300672285 112.9 19 08 32 4690
627549.3223981657 1013084.2919145067 100.1 19 08 36 4690
627568.4115283015 1013093.9630122881 78.0 19 08 40 4690
627571.2950149925 1013078.9664705378 100.3 19 08 44 4690
627568.1345550001 1013070.8285633075 92.6 19 08 48 4690
627563.5268959192 1013085.4988555902 57.9 19 08 52 4690
627562.0146013745 1013053.5692274781 91.0 19 08 56 4690
627546.0128980076 1013016.7715116482 99.1 19 09 00 4690
627504.3501888709 1012997.7166891774 116.7 19 09 08 4690
627524.5227191877 1013032.6369018994 96.6 19 09 12 4690
627525.6986416817 1013029.1905675491 97.3 19 09 16 4690
627548.5120481423 1013039.1501194525 64.0 19 09 20 4690
627503.5898020918 1013049.4882703999 95.6 19 09 24 4690
627469.3238389924 1013033.4319718031 116.9 19 09 28 4690
627468.8257037385 1013027.7465015822 105.3 19 09 32 4690
627470.103354838 1013013.198160993 113.4 19 09 36 4690
627459.9385385175 1013013.275964408 133.5 19 09 40 4690
627472.5743235978 1013010.2536163654 106.0 19 09 44 4690
627486.8328457236 1012970.8664105528 124.1 19 09 48 4690
627488.714328877 1012973.5264227304 120.2 19 09 52 4690
627488.852219317 1012971.6580483266 115.6 19 09 56 4690
627492.801234385 1012970.3991027555 122.4 19 10 00 4690
627495.0511905728 1012971.2467750362 129.8 19 10 08 4690
627494.7001174587 1012964.2569226362 116.3 19 10 12 4690
627493.3485528942 1012964.2415054862 119.9 19 10 16 4690
627494.4977929464 1012965.6606489785 118.9 19 10 20 4690
627496.4398616882 1012973.3854674464 127.7 19 10 24 4690
627498.0984972784 1012970.1839675833 128.1 19 10 28 4690
627497.2341056145 1012969.0311371025 118.1 19 10 32 4690
627494.206136931 1012970.9123065047 121.3 19 10 36 4690
627494.9622394377 1012964.7553825984 113.5 19 10 40 4690
627496.9812603943 1012969.0634959104 123.4 19 10 44 4690
627495.4346152616 1012971.6129290219 124.5 19 10 48 4690
627498.3339267558 1012965.3302203295 119.2 19 10 52 4690
627498.8249514219 1012962.9985446044 114.4 19 10 56 4690
627498.0212879367 1012966.8662880916 126.8 19 11 00 4690
627498.6310154625 1012968.6154346976 124.1 19 11 08 4690
627496.619634602 1012968.7527027259 122.0 19 11 12 4690
627498.5627298262 1012969.3450491594 123.1 19 11 16 4690
627496.6179940132 1012969.2613701043 130.3 19 11 20 4690
627490.4632978422 1012969.5732630715 128.5 19 11 24 4690
627483.5275085678 1012963.3473002887 120.7 19 11 28 4690
627464.3374504502 1012961.095914705 122.8 19 11 32 4690
627462.7755977821 1012958.1383658911 126.5 19 11 36 4690
627439.5911865806 1012933.713682655 144.6 19 11 40 4690
627451.9094093451 1012937.1703477884 145.9 19 11 44 4690
627445.2040488453 1012931.0446591333 156.0 19 11 48 4690
627442.1092752609 1012926.3792223633 149.9 19 11 52 4690
627401.1738597678 1012889.6007419887 161.4 19 11 56 4690
627324.8559545788 1012838.7419739704 163.1 19 12 00 4690
627326.4103510132 1012826.9590510328 167.3 19 12 08 4690
627317.6818120892 1012841.6824395697 168.0 19 12 12 4690
627312.2194215641 1012841.9855339726 176.9 19 12 16 4690
627305.5680635945 1012839.553451386 176.4 19 12 20 4690
627305.0981510285 1012838.7446974048 171.0 19 12 24 4690
627301.486419302 1012844.4611603785 171.2 19 12 28 4690
627290.4146423814 1012860.0063652915 179.5 19 12 32 4690
627313.5471119061 1012828.9412582428 174.7 19 12 36 4690
627311.8307315096 1012833.01616795 168.5 19 12 40 4690
627314.8016908444 1012831.7761703625 164.2 19 12 44 4690
627311.1516073166 1012832.3394373294 168.8 19 12 48 4690
627314.8973482559 1012832.7827649772 165.8 19 12 52 4690
627323.0319350156 1012848.9427210684 162.9 19 12 56 4690
627314.5912957739 1012842.5129023704 168.5 19 13 00 4690
627310.6048667767 1012834.9142126796 161.6 19 13 08 4690
627314.4459945922 1012833.0356476835 176.2 19 13 12 4690
627312.1636669866 1012831.9998953935 173.8 19 13 16 4690
627313.8357578807 1012831.4413170251 173.2 19 13 20 4690
627315.244234333 1012837.6715597014 163.7 19 13 24 4690
627317.1747764039 1012831.9275675324 172.0 19 13 28 4690
627314.2287142273 1012832.2608813976 167.6 19 13 32 4690
627313.1369709491 1012830.0457469313 166.3 19 13 36 4690
627312.9912697974 1012830.9299252811 165.4 19 13 37 4690
627313.4765363797 1012833.7955343251 159.4 19 13 40 4690
627314.2018584828 1012833.7757538251 158.2 19 13 44 4690
627313.2543419832 1012834.5467692208 157.4 19 13 48 4690
627313.5161466892 1012835.1447493718 154.6 19 13 52 4690
627313.378315101 1012833.5851142433 155.8 19 13 56 4690
627313.234685832 1012840.6507739311 154.2 19 14 00 4690
627298.4878941114 1012847.4371907578 141.7 19 14 08 4690
627300.2906372675 1012847.255007793 157.3 19 14 12 4690
627254.3295496228 1012845.735840545 148.0 19 14 16 4690
627224.9150905432 1012824.4870457548 137.9 19 14 20 4690
627229.2285552733 1012819.2483331322 141.0 19 14 24 4690
627216.3897646513 1012854.6150262943 151.4 19 14 28 4690
627208.1858172613 1012866.8299346749 157.9 19 14 32 4690
627226.1410559104 1012890.8505962363 154.9 19 14 36 4690
627237.0984919984 1012893.7499064818 158.7 19 14 40 4690
627241.2744919154 1012893.6638241702 155.3 19 14 44 4690
627223.2540002456 1012872.8497908277 155.6 19 14 48 4690
627221.0981775987 1012866.6503223355 157.0 19 14 52 4690
627220.1543578111 1012869.6882602056 153.3 19 14 56 4690
627221.3787293558 1012864.8376982043 153.0 19 15 00 4690
627219.2449765013 1012865.4390269133 171.2 19 15 08 4690
627219.9394668753 1012864.7556600885 157.3 19 15 12 4690
627220.3051384881 1012870.6397412439 172.4 19 15 16 4690
627221.1189805917 1012867.0153062845 150.9 19 15 20 4690
627220.5388601958 1012866.3057216499 156.8 19 15 24 4690
627224.5425318847 1012865.135389726 164.0 19 15 28 4690
627222.7425233137 1012867.8830619417 164.7 19 15 32 4690
627222.7209444959 1012864.3444033352 166.2 19 15 36 4690
627223.283813325 1012867.0001565312 161.9 19 15 40 4690
627222.5255903072 1012870.4146667225 155.7 19 15 44 4690
627222.4210060637 1012868.766674587 157.9 19 15 48 4690
627224.275089448 1012856.0447781446 163.2 19 15 52 4690
627248.5645862486 1012851.279505293 151.7 19 15 56 4690
627308.7680241182 1012825.2103493998 160.7 19 16 00 4690
627327.5088757188 1012823.6562185495 159.2 19 16 08 4690
627321.0037356095 1012823.5910367644 157.1 19 16 12 4690
627317.9222270953 1012821.623830637 162.6 19 16 16 4690
627320.66887688 1012825.2044401844 162.2 19 16 20 4690
627326.092071282 1012888.253045418 153.2 19 16 24 4690
627324.7989737453 1012887.1430712761 157.2 19 16 28 4690
627287.5925667854 1012903.7430972285 157.7 19 16 32 4690
627263.8411390481 1012942.7680468152 171.4 19 16 36 4690
627277.2700764934 1012973.2652706217 163.0 19 16 40 4690
627294.0799632245 1012994.6283453901 143.5 19 16 44 4690
627275.7347211819 1013057.6335834854 143.6 19 16 48 4690
627276.6771897684 1013055.0158499052 150.2 19 16 52 4690
627277.9691568582 1013053.0627273704 150.1 19 16 56 4690
627280.1487071972 1013051.8865295212 152.6 19 17 00 4690
627278.1239940753 1013052.7535993115 148.0 19 17 08 4690
627281.3937861666 1013054.2569709496 147.3 19 17 12 4690
627281.809785737 1013054.7448666622 147.9 19 17 16 4690
627277.9105603229 1013050.7845712926 144.5 19 17 20 4690
627279.5295503276 1013049.6508007722 140.4 19 17 24 4690
627275.0161821082 1013052.1353970652 144.3 19 17 28 4690
627277.4672503051 1013058.7781459128 141.7 19 17 32 4690
627278.8631352283 1013055.2661667468 143.0 19 17 36 4690
627277.8598623747 1013056.2913389396 143.3 19 17 40 4690
627277.9235289877 1013053.5823108741 137.8 19 17 44 4690
627285.8378306878 1013104.0105909576 121.9 19 17 48 4690
627302.4027674993 1013133.1688468351 127.2 19 17 52 4690
627296.1490678458 1013147.1703697178 119.5 19 17 56 4690
627302.1623771664 1013153.2163997769 121.7 19 18 00 4690
627309.009319043 1013152.9067111242 138.7 20 06 08 4690
627309.087592494 1013152.4867556103 127.1 20 06 12 4690
627309.973872446 1013157.0787202246 116.7 20 06 16 4690
627305.0898577711 1013151.8214509884 97.0 20 06 20 4690
627302.6450546347 1013153.472290657 101.4 20 06 24 4690
627304.4725027254 1013145.6158708225 136.3 20 06 28 4690
627310.2869111694 1013117.8898370697 122.9 20 06 32 4690
627312.1274345269 1013119.6208284445 138.5 20 06 36 4690
627310.7633551704 1013113.2580296218 142.0 20 06 40 4690
627312.1773907482 1013121.1691227657 132.4 20 06 44 4690
627312.3387106782 1013118.847442281 133.2 20 06 48 4690
627302.4499066272 1013121.9450317725 127.7 20 06 52 4690
627316.9869990947 1013135.8808248315 124.1 20 06 56 4690
627313.6708564026 1013138.5351439125 129.6 20 07 00 4690
627282.5224424893 1013137.141024151 119.2 20 07 08 4690
627306.2368004316 1013205.1251674787 101.1 20 07 12 4690
627360.8992810178 1013230.8897238951 107.6 20 07 16 4690
627381.775346122 1013235.0374448373 110.4 20 07 20 4690
627423.8741922828 1013268.7123801117 112.6 20 07 24 4690
627481.4785178672 1013281.7697929284 122.5 20 07 28 4690
627483.3202019511 1013279.7299850399 127.8 20 07 32 4690
627500.1518836042 1013314.6947192864 118.4 20 07 36 4690
627525.3151153809 1013342.1668408838 122.5 20 07 40 4690
627547.5903378044 1013365.6045107415 137.1 20 07 44 4690
627556.9164056708 1013387.0431080582 105.7 20 07 48 4690
627612.530037233 1013424.4000356952 118.2 20 07 52 4690
627697.0403583872 1013404.9564547297 104.5 20 07 56 4690
627735.0528289117 1013390.48261139 108.9 20 08 00 4690
627747.5074580592 1013389.0853203302 103.3 20 08 08 4690
627740.0560902974 1013386.0202499779 108.3 20 08 12 4690
627728.5455938322 1013391.0918886068 95.8 20 08 16 4690
627724.8865219142 1013397.8476254098 87.9 20 08 20 4690
627730.1612621421 1013390.9865301693 96.8 20 08 24 4690
627725.3980039451 1013389.1907769738 100.1 20 08 28 4690
627726.4656558319 1013392.0472210107 103.4 20 08 32 4690
627724.9898563559 1013389.6760146032 101.5 20 08 36 4690
627721.8393044167 1013381.8919781763 101.6 20 08 40 4690
627734.6549187102 1013374.2037836817 108.3 20 08 44 4690
627729.595835338 1013382.337258661 93.4 20 08 48 4690
627721.9056544782 1013395.3609729855 95.6 20 08 52 4690
627727.619505874 1013388.6339941372 94.0 20 08 56 4690
627731.395135354 1013393.4122453314 105.8 20 09 00 4690
627735.4315210538 1013399.1091632973 116.4 20 09 08 4690
627734.5099736064 1013395.2469029764 97.8 20 09 12 4690
627739.2991456096 1013406.0219286585 95.9 20 09 16 4690
627731.1057028972 1013408.162831581 102.5 20 09 20 4690
627740.0209497823 1013396.8902610699 82.5 20 09 24 4690
627736.2928350925 1013404.6078296079 97.7 20 09 28 4690
627736.2104819075 1013406.288396489 88.5 20 09 32 4690
627735.5126154404 1013404.6163654788 87.8 20 09 36 4690
627736.5886668002 1013404.8741806581 86.0 20 09 40 4690
627734.9867183755 1013407.5340071049 94.0 20 09 44 4690
627740.4657146286 1013405.4727943522 109.3 20 09 48 4690
627735.9564096257 1013403.3018847535 88.2 20 09 52 4690
627735.738641362 1013402.6819264672 84.3 20 09 56 4690
627733.2848157225 1013396.9237755511 75.9 20 10 00 4690
627737.1283686393 1013407.8837320074 92.9 20 10 08 4690
627739.0257914148 1013405.6008366726 90.4 20 10 12 4690
627739.9873460915 1013407.2847783419 97.6 20 10 16 4690
627718.6760911344 1013415.4210071793 93.6 20 10 20 4690
627691.6599492705 1013471.7190001172 73.8 20 10 24 4690
627689.2071671484 1013509.8394411339 68.3 20 10 28 4690
627646.9230985381 1013547.2450897885 68.7 20 10 32 4690
627645.3102549484 1013539.676131527 47.1 20 10 36 4690
627631.8494070267 1013543.027483095 76.2 20 10 40 4690
627625.4170397117 1013537.4776488733 69.1 20 10 44 4690
627632.018320772 1013538.3615065382 78.5 20 10 48 4690
627618.9901187421 1013571.0624818936 69.6 20 10 52 4690
627611.935351899 1013571.0949839549 68.2 20 10 56 4690
627612.6954711067 1013573.9061989526 59.5 20 11 00 4690
627635.448157077 1013585.5464833927 74.4 20 11 08 4690
627627.347860658 1013582.6783797854 74.7 20 11 12 4690
627613.0627299803 1013582.6764657844 67.9 20 11 16 4690
627518.7093263387 1013652.4912477662 65.8 20 11 20 4690
627620.747109111 1013585.0345497148 73.2 20 11 24 4690
627625.2822745589 1013592.8009352263 60.8 20 11 28 4690
627614.9480376025 1013590.9429633446 87.1 20 11 32 4690
627599.3976200025 1013584.6338447495 58.6 20 11 36 4690
627625.9704596457 1013563.4549356435 57.2 20 11 40 4690
627623.9320884643 1013592.3653071404 130.5 20 11 44 4690
627639.6762349453 1013596.5297888523 153.9 20 11 48 4690
627624.5793704748 1013575.6807108783 116.2 20 11 52 4690
627599.4145368264 1013593.0048876595 136.0 20 11 56 4690
627604.7319709465 1013586.5198947256 158.0 20 12 00 4690
627625.3343303748 1013583.4901751081 99.7 20 12 08 4690
627618.926029256 1013601.1071580047 125.2 20 12 12 4690
627605.4626984665 1013578.0185692718 66.7 20 12 16 4690
627606.4501465224 1013581.8920968445 89.8 20 12 20 4690
627603.1492178102 1013583.2415822566 81.9 20 12 24 4690
627583.0742168365 1013569.2877623731 84.6 20 12 28 4690
627513.7417200897 1013564.220470676 102.8 20 12 32 4690
627490.1132068385 1013592.4197874111 95.7 20 12 36 4690
627455.7216599933 1013601.8187857425 96.1 20 12 40 4690
627389.7744392401 1013586.3016643776 88.6 20 12 44 4690
627331.4902585446 1013579.7553593966 71.9 20 12 48 4690
627282.6415735242 1013526.5964873872 92.6 20 12 52 4690
627276.0821529889 1013543.4168371584 92.1 20 12 56 4690
627266.7152036363 1013534.6397078664 75.1 20 13 00 4690
627250.3114529751 1013523.7278200326 79.9 20 13 08 4690
627264.7599022253 1013507.1429818681 78.1 20 13 12 4690
627281.886504643 1013488.1008196403 92.0 20 13 16 4690
627168.2755237116 1013460.8085279422 96.9 20 13 20 4690
627154.5248550585 1013462.0359536709 98.5 20 13 24 4690
627144.8390531205 1013470.3757593718 95.6 20 13 28 4690
627113.7760133449 1013439.1141118064 95.3 20 13 32 4690
627127.272345572 1013441.8004169515 98.7 20 13 36 4690
627114.9491347857 1013450.1870345174 91.1 20 13 40 4690
627116.6972222415 1013453.3220981034 84.8 20 13 44 4690
627115.6151169892 1013431.0365642665 93.5 20 13 48 4690
627117.1178786962 1013425.036855706 93.3 20 13 52 4690
627116.6967234362 1013426.1523679326 96.6 20 13 56 4690
627121.8568938181 1013454.8647147936 89.6 20 14 00 4690
627155.6515428667 1013463.6319448666 93.7 20 14 08 4690
627157.9452420893 1013467.9519825722 98.0 20 14 12 4690
627145.1754610306 1013471.6927548522 97.7 20 14 16 4690
627146.4177982818 1013471.4977070641 94.2 20 14 20 4690
627162.7378868923 1013467.4476767582 95.1 20 14 24 4690
627159.8894095619 1013471.6184681116 92.8 20 14 28 4690
627158.0195907496 1013472.165354989 92.5 20 14 32 4690
627167.4306391334 1013467.2526765916 94.0 20 14 36 4690
627158.1491556636 1013466.0506469695 95.3 20 14 40 4690
627201.259400983 1013458.5925023763 86.3 20 14 44 4690
627245.4917100812 1013433.6994001776 82.6 20 14 48 4690
627254.3573159785 1013441.2032246847 84.5 20 14 52 4690
627271.1471419003 1013434.6113869479 89.5 20 14 56 4690
627304.5724192195 1013425.0100569015 103.6 20 15 00 4690
627297.1147252488 1013430.7251820908 86.5 20 15 08 4690
627283.041723063 1013416.0278676182 104.5 20 15 12 4690
627290.7674980247 1013426.0161006253 93.8 20 15 16 4690
627292.2861012844 1013421.9294970918 78.6 20 15 20 4690
627281.466150576 1013400.2760631233 87.5 20 15 24 4690
627277.3814770845 1013389.0831705736 91.9 20 15 28 4690
627260.4036437352 1013419.9248061106 95.5 20 15 32 4690
627257.8414091475 1013434.1593809432 80.4 20 15 36 4690
627296.8565152915 1013411.95875975 107.1 20 15 40 4690
627306.121128072 1013435.453890541 91.1 20 15 44 4690
627303.591532629 1013436.1424004959 97.3 20 15 48 4690
627311.1785734198 1013434.6187122359 90.1 20 15 52 4690
627310.1747022585 1013435.8318684131 86.2 20 15 56 4690
627304.2787478317 1013437.7148644502 92.6 20 16 00 4690
627263.7759027472 1013440.780178013 92.5 20 16 08 4690
627281.6384459994 1013459.3600272848 82.1 20 16 12 4690
627329.637165744 1013466.0057840166 108.2 20 16 16 4690
627341.7307351128 1013477.7442277696 109.1 20 16 20 4690
627378.0611652087 1013511.1572771032 127.8 20 16 24 4690
627375.1423936354 1013520.0828120179 118.5 20 16 28 4690
627399.9773506521 1013519.842202263 106.1 20 16 32 4690
627416.8903234273 1013505.7313152598 123.4 20 16 36 4690
627452.6025157099 1013495.7283386361 124.5 20 16 40 4690
627454.8812685241 1013497.8588454127 127.2 20 16 44 4690
627434.6996854334 1013527.1419499541 118.6 20 16 48 4690
627424.8939837549 1013528.3488302304 118.0 20 16 52 4690
627428.0550614981 1013532.8817894759 120.6 20 16 56 4690
627425.9747439557 1013530.5528783082 119.2 20 17 00 4690
627392.2408367561 1013581.3555881545 96.0 20 17 08 4690
627351.4602111412 1013629.7249337778 84.3 20 17 12 4690
627350.2730239737 1013640.082546343 80.8 20 17 16 4690
627348.209347013 1013629.1836651942 84.8 20 17 20 4690
627347.429917085 1013628.948932495 82.9 20 17 24 4690
627327.1736980248 1013647.3396067364 87.0 20 17 28 4690
627309.0983843437 1013667.5397877295 79.2 20 17 32 4690
627309.1513547688 1013674.9710008084 82.3 20 17 36 4690
627313.1885821829 1013670.1847973024 82.6 20 17 40 4690
627317.9582324254 1013669.9900657962 76.6 20 17 44 4690
627326.6437479594 1013644.7060709979 80.5 20 17 48 4690
627349.172469866 1013626.9751499876 90.5 20 17 52 4690
627341.276408652 1013608.471612061 103.6 20 17 56 4690
627354.880715844 1013601.5046312172 84.1 20 18 00 4690
627441.2832193618 1013557.3739224816 117.8 21 06 08 4690
627437.7877691028 1013533.864178973 107.7 21 06 12 4690
627453.6656663419 1013537.4539910562 120.8 21 06 16 4690
627453.91240671 1013535.9066526017 116.6 21 06 20 4690
627436.3607343838 1013536.8120893223 113.9 21 06 24 4690
627442.5919771973 1013539.9948065935 121.3 21 06 28 4690
627440.4534324597 1013531.8712608648 116.4 21 06 32 4690
627429.2280692608 1013560.9952690448 97.1 21 06 36 4690
627403.1678545591 1013562.9569697273 108.2 21 06 40 4690
627395.7109575497 1013571.8346947533 97.7 21 06 44 4690
627385.3295330385 1013581.2006052915 100.3 21 06 48 4690
627310.1394326203 1013590.003755745 93.3 21 06 52 4690
627270.7089360347 1013563.8238320994 91.7 21 06 56 4690
627231.5991560417 1013513.1070744573 85.9 21 07 00 4690
627232.4352911138 1013509.3831890372 100.0 21 07 08 4690
627226.6143989783 1013508.4355642834 88.5 21 07 12 4690
627229.2050402502 1013509.262205736 95.1 21 07 16 4690
627229.296992521 1013511.4188303704 96.2 21 07 20 4690
627228.6102300647 1013519.942410073 96.4 21 07 24 4690
627129.1114488908 1013573.7404228408 92.0 21 07 28 4690
627100.0203134654 1013609.2759891207 87.0 21 07 32 4690
627073.6197632384 1013635.0780481894 94.9 21 07 36 4690
627042.273643444 1013671.3694002671 107.1 21 07 40 4690
627048.3448970249 1013676.4645892156 114.1 21 07 44 4690
627037.3803512324 1013692.9279954002 129.7 21 07 48 4690
627041.5164718225 1013688.1310284856 119.9 21 07 52 4690
627048.6287817769 1013677.0294648145 118.9 21 07 56 4690
627046.2236376448 1013673.1956304774 116.3 21 08 00 4690
627043.9988253094 1013661.124099816 76.4 21 08 08 4690
627058.9848852135 1013658.4188342915 111.9 21 08 12 4690
627060.1270002889 1013665.4665110486 103.0 21 08 16 4690
627056.5323370536 1013655.657481605 81.0 21 08 20 4690
627052.9352496174 1013656.8512440212 115.6 21 08 24 4690
627065.2186581441 1013657.3994247883 96.2 21 08 28 4690
627053.3955167624 1013660.6567071738 109.4 21 08 32 4690
627060.3809094651 1013661.6854610189 100.2 21 08 37 4690
627057.2135813786 1013659.0876805368 74.9 21 08 40 4690
627058.1552733863 1013666.9530112038 94.3 21 08 44 4690
627046.9964208272 1013661.8303999887 63.2 21 08 48 4690
627046.7704289411 1013663.764838805 89.1 21 08 52 4690
627045.2535653461 1013667.3206651558 103.1 21 08 56 4690
627047.4923929804 1013661.3675553508 93.5 21 09 00 4690
627051.6888209977 1013678.8196591277 90.1 21 09 08 4690
627058.9624656555 1013685.8870573255 108.9 21 09 12 4690
627073.0089656414 1013708.8114297674 142.5 21 09 16 4690
627060.6909552296 1013681.4472649088 94.3 21 09 24 4690
627050.3276826052 1013674.9560080601 87.9 21 09 28 4690
627061.1269678368 1013685.9603680741 99.1 21 09 32 4690
627059.7046641987 1013684.0316855153 97.2 21 09 36 4690
627059.6271051387 1013684.2304816631 93.7 21 09 40 4690
627052.6125568692 1013682.0184180656 88.9 21 09 44 4690
627053.5627507513 1013683.8239428446 84.3 21 09 48 4690
627049.2969038419 1013681.1231067749 84.4 21 09 52 4690
627046.339852995 1013667.8107147185 107.1 21 09 56 4690
627037.162504753 1013675.245410302 123.0 21 10 00 4690
627030.3551686844 1013670.1036238716 115.9 21 10 08 4690
627024.7988047157 1013672.3305484387 114.1 21 10 12 4690
627018.8189113305 1013683.2477693789 113.2 21 10 16 4690
626996.852363012 1013700.4941076871 126.4 21 10 20 4690
626990.3596471543 1013741.0453578418 123.9 21 10 24 4690
626990.7699503006 1013739.8855777322 123.0 21 10 28 4690
626988.7514677617 1013742.2455192121 121.3 21 10 32 4690
626989.6544674588 1013738.2232783533 121.9 21 10 36 4690
626990.410723188 1013714.9042027195 115.8 21 10 40 4690
627003.8383404237 1013684.2501207195 108.9 21 10 44 4690
627004.4576754596 1013686.4305552853 119.4 21 10 48 4690
627004.0794097774 1013684.4609994565 108.9 21 10 52 4690
627004.0469423083 1013684.3060818388 110.3 21 10 56 4690
627000.8540455701 1013682.8250907466 104.9 21 11 00 4690
626999.8300709333 1013693.7140151461 113.7 21 11 08 4690
627004.8362610664 1013688.3005893609 112.4 21 11 12 4690
627005.1069841322 1013682.7060672558 105.9 21 11 16 4690
626993.5176529121 1013667.9283769765 115.0 21 11 20 4690
626909.925731917 1013692.5735987547 104.9 21 11 24 4690
626866.170620498 1013702.4848457455 98.9 21 11 28 4690
626842.5040646468 1013722.1806944951 101.8 21 11 32 4690
626817.2604059358 1013729.9840534718 103.6 21 11 36 4690
626784.0138116201 1013704.5874983879 93.2 21 11 40 4690
626767.2715475231 1013655.3363700887 79.4 21 11 44 4690
626742.3370159233 1013631.8574683589 92.0 21 11 48 4690
626735.2861548698 1013586.1539275245 104.6 21 11 52 4690
626752.0468967987 1013574.8731692004 95.7 21 11 56 4690
626751.3288273516 1013572.6371335405 91.9 21 11 57 4690
626731.3294219212 1013562.4437741991 115.5 21 12 00 4690
626699.2275334467 1013467.8606075234 133.3 21 12 08 4690
626709.1312448399 1013470.3472599894 142.6 21 12 12 4690
626682.8686054846 1013460.0564418571 87.1 21 12 17 4690
626680.0853689471 1013464.4596901411 112.3 21 12 20 4690
626682.2232598894 1013465.9815010397 106.4 21 12 24 4690
626676.9029613986 1013480.2625341939 109.5 21 12 28 4690
626686.8682105496 1013477.2645731699 103.4 21 12 32 4690
626684.7904718051 1013477.5454210722 107.5 21 12 33 4690
626684.9661067794 1013481.0292779839 104.7 21 12 36 4690
626700.0622070013 1013457.7230285103 92.8 21 12 40 4690
626690.6601996025 1013418.7131644678 109.7 21 12 44 4690
626694.4240018418 1013413.5058210539 103.2 21 12 48 4690
626691.274019665 1013384.9216547195 100.1 21 12 52 4690
626678.1711161416 1013379.4722473527 100.2 21 12 56 4690
626678.4524951136 1013370.5382251386 91.8 21 13 00 4690
626678.9264908782 1013363.2192993361 103.7 21 13 08 4690
626695.0332357382 1013353.7278197191 103.8 21 13 12 4690
626730.6032756509 1013333.1853950873 99.1 21 13 16 4690
626722.6671740356 1013333.9118934347 91.2 21 13 20 4690
626722.4980203894 1013335.2604362473 101.4 21 13 24 4690
626721.2531649932 1013336.2406129347 87.3 21 13 28 4690
626712.67494133 1013341.8858976635 87.8 21 13 32 4690
626704.2095385495 1013356.8977355743 100.0 21 13 36 4690
626706.8948129151 1013348.7786604431 109.2 21 13 40 4690
626692.9585854756 1013335.906609205 101.3 21 13 44 4690
626684.999803848 1013326.5701943554 95.1 21 13 48 4690
626681.7271132665 1013322.545621574 93.5 21 13 52 4690
626676.3883375264 1013315.1638294733 76.7 21 13 56 4690
626676.8955798314 1013321.4685578264 62.9 21 14 00 4690
626668.6474042728 1013313.2812591834 65.1 21 14 08 4690
626681.5702982857 1013316.6179909739 101.9 21 14 12 4690
626681.4380810622 1013320.156150923 81.5 21 14 16 4690
626677.753603881 1013321.1837984474 82.0 21 14 20 4690
626695.8475914309 1013349.9264529081 104.8 21 14 24 4690
626701.4658675066 1013383.2292737596 97.6 21 14 28 4690
626699.2305589787 1013388.0987175807 88.9 21 14 32 4690
626633.4073528203 1013412.591448978 96.1 21 14 36 4690
626644.0362142504 1013418.5415838466 92.9 21 14 40 4690
626659.1447853582 1013408.4829322376 87.9 21 14 44 4690
626692.4027021863 1013399.6103974321 94.8 21 14 48 4690
626666.5685974738 1013372.1698979136 96.2 21 14 52 4690
626618.5672806472 1013373.1550368163 94.3 21 14 56 4690
626620.3273186549 1013376.0026012969 96.5 21 15 00 4690
626586.3619587165 1013331.2965755605 105.1 21 15 08 4690
626555.646353058 1013335.4997819867 101.2 21 15 12 4690
626548.4121698476 1013322.9257049568 106.3 21 15 16 4690
626541.7107265323 1013325.8567492014 100.7 21 15 20 4690
626567.2866229668 1013279.5611116391 125.4 21 15 24 4690
626595.4396527549 1013228.0432719054 114.2 21 15 28 4690
626604.0909517193 1013213.3084607268 125.4 21 15 32 4690
626612.6229925752 1013225.5107304886 109.8 21 15 36 4690
626620.9886605269 1013227.9039601209 110.0 21 15 40 4690
626622.5907217012 1013232.044811943 110.7 21 15 44 4690
626698.3057594775 1013193.2856477726 126.4 21 15 48 4690
626736.4765261218 1013177.3295921306 128.2 21 15 52 4690
626738.6752382109 1013166.7430063987 136.4 21 15 56 4690
626750.5780076786 1013176.3795872267 145.3 21 16 00 4690
626738.3768019846 1013143.2989293243 133.7 21 16 08 4690
626740.0973921854 1013175.5829693462 127.4 21 16 12 4690
626740.7807735413 1013174.9327343534 132.4 21 16 16 4690
626765.6372020843 1013171.4738676511 139.5 21 16 20 4690
626856.6589363484 1013150.0810242369 115.7 21 16 24 4690
626893.5765023329 1013103.5123171333 130.6 21 16 28 4690
626982.7959695074 1013181.4266031818 111.3 21 16 32 4690
626997.2663578123 1013144.3289918542 116.7 21 16 36 4690
627033.6737453092 1013106.1186674512 132.7 21 16 40 4690
627029.8681697648 1013100.3672900813 125.0 21 16 44 4690
627071.9752238295 1013145.2878930449 126.3 21 16 48 4690
627146.9070696402 1013152.0863246801 131.7 21 16 52 4690
627201.7001272221 1013127.0833574343 109.9 21 16 56 4690
627255.0546340466 1013115.4561193315 131.5 21 17 00 4690
627256.294228006 1013051.2678772537 128.7 21 17 08 4690
627223.2065859038 1012986.6042256847 139.4 21 17 12 4690
627271.7506070638 1012919.6268051502 152.1 21 17 16 4690
627322.363697779 1012855.1220439165 157.8 21 17 20 4690
627316.5242798716 1012839.4228607026 165.0 21 17 24 4690
627320.37899045 1012829.9142548691 170.3 21 17 28 4690
627327.7709296029 1012824.1767929493 159.3 21 17 32 4690
627319.2694927966 1012829.8001009576 169.2 21 17 36 4690
627319.7140243077 1012828.2533992836 162.3 21 17 40 4690
627324.1606937614 1012836.2516636011 162.9 21 17 44 4690
627315.1294484166 1012835.7802559398 159.2 21 17 48 4690
627306.9381613239 1012830.4017613373 165.2 21 17 52 4690
627309.5728239352 1012834.6344370287 170.5 21 17 56 4690
627322.4116810632 1012860.6954781539 162.9 21 18 00 4690
627285.037400072 1012943.0795676095 164.9 22 06 08 4690
627279.6813145163 1012944.4998744384 162.5 22 06 12 4690
627283.936045915 1012943.8500880111 164.0 22 06 16 4690
627284.3469685535 1012942.5023236647 166.1 22 06 20 4690
627276.8286760249 1012946.5364371955 153.7 22 06 24 4690
627282.9893532009 1012896.5847478113 172.2 22 06 28 4690
627265.7178045389 1012868.4194717435 154.1 22 06 32 4690
627278.395369711 1012842.1862550376 137.9 22 06 36 4690
627277.5825629432 1012821.5934693485 160.1 22 06 40 4690
627297.2865433712 1012828.070600615 162.2 22 06 44 4690
627302.466995941 1012819.7715943253 160.7 22 06 48 4690
627301.6981951724 1012816.2305289079 171.0 22 06 52 4690
627304.6645841808 1012819.8229027222 166.6 22 06 56 4690
627308.0575282474 1012817.2130596548 165.2 22 07 00 4690
627286.9586002401 1012827.6060827123 148.3 22 07 24 4690
627289.1127317749 1012827.5024370835 167.6 22 07 32 4690
627291.087329748 1012831.965206107 157.2 22 07 36 4690
627288.9811760542 1012830.8194415221 156.9 22 07 40 4690
627286.8271515013 1012830.8899132 157.2 22 07 44 4690
