3494.9205011 1943.04285177 57.4 39 15 08 4670
3474.85606546 1918.63935251 49.4 39 15 12 4670
3464.99847107 1894.86587548 60.4 39 15 16 4670
3443.56253238 1897.08586839 30.6 39 15 20 4670
3471.59210682 1891.40381242 61.9 39 15 24 4670
3456.36159872 1904.92304096 55.3 39 15 28 4670
3450.32773563 1915.41985599 41.2 39 15 32 4670
3462.26353429 1908.09360514 55.1 39 15 36 4670
3481.67499519 1886.17263614 40.2 39 15 40 4670
3554.30821712 1880.87761068 76.6 39 15 44 4670
3575.97564138 1895.48884632 53.5 39 15 48 4670
3588.17823239 1897.452292 47.4 39 15 52 4670
3596.98019929 1904.36986391 33.7 39 15 56 4670
3611.97612123 1898.8670485 41.9 39 16 00 4670
3621.51041941 1903.59748415 71.2 39 16 05 4670
3636.83126261 1916.60698444 58.9 39 16 09 4670
3666.1005719 1932.00580281 70.9 39 16 12 4670
3679.51968274 1931.57359503 43.2 39 16 16 4670
3686.49716694 1931.76197798 18.5 39 16 21 4670
3695.75130156 1938.17236133 52.6 39 16 24 4670
3736.90071024 1902.22256551 56.1 39 16 28 4670
3717.42411405 1886.39085411 91.6 39 16 33 4670
3723.43914748 1874.94301267 75.4 39 16 36 4670
3726.33907689 1868.50549732 60.4 39 16 40 4670
3720.37970805 1866.10877373 50.9 39 16 44 4670
3704.06082555 1869.51730154 51.1 39 16 48 4670
3720.65960615 1867.91214769 61.3 39 16 52 4670
3705.69390528 1887.87902035 53.4 39 16 56 4670
3713.67935295 1892.4164938 55.9 39 17 00 4670
3740.13644236 1958.574047 74.3 39 17 09 4670
3747.0161998 1958.39720839 65.3 39 17 12 4670
3741.26281269 1960.28063073 71.6 39 17 16 4670
3753.01097229 1987.26715408 72.1 39 17 20 4670
3755.01738691 2009.11338774 65.9 39 17 24 4670
3752.55236289 2044.22596998 58.7 39 17 28 4670
3752.05772812 2091.91797909 73.2 39 17 32 4670
3737.83428933 2116.85231848 73.5 39 17 36 4670
3736.23232902 2116.09519583 65.4 39 17 40 4670
3742.21419586 2142.14528585 85.9 39 17 44 4670
3758.99443325 2155.77881752 86.7 39 17 48 4670
3761.28404582 2188.60666838 85.5 39 17 52 4670
3767.78019066 2211.92707522 84.1 39 17 56 4670
3788.98441414 2230.37413049 94.3 39 18 00 4670
3829.81251863 2287.01295921 83.1 39 18 08 4670
3827.49710154 2303.00656121 83.1 39 18 12 4670
3826.94680244 2310.07091466 85.7 39 18 16 4670
3827.65146991 2313.04782284 92.8 39 18 20 4670
3825.89887044 2307.90013931 85.0 39 18 24 4670
3823.63896288 2310.11551718 85.5 39 18 28 4670
3817.95734092 2310.20774092 92.0 40 06 00 4670
3819.08056742 2309.48153484 88.2 40 06 24 4670
3830.98476616 2301.72403179 71.8 40 06 28 4670
3825.77878581 2290.64910166 76.2 40 06 32 4670
3825.70945807 2291.69939798 76.4 40 06 36 4670
3815.87908546 2276.60649309 70.0 40 06 40 4670
3804.10559032 2271.11681021 70.5 40 06 44 4670
3780.81535751 2241.88135112 78.9 40 06 48 4670
3783.81491516 2228.41120684 70.8 40 06 52 4670
3741.11681483 2219.95762818 64.9 40 06 56 4670
3705.77903626 2212.22451528 55.0 40 07 00 4670
3612.9125014 2153.72608873 69.2 40 07 08 4670
3575.58718597 2145.51119462 55.0 40 07 12 4670
3496.87619124 2123.92641972 61.3 40 07 16 4670
3430.19795665 2078.51719616 68.3 40 07 20 4670
3364.33872267 2065.40036667 56.9 40 07 24 4670
3363.57672861 2087.04965611 52.7 40 07 28 4670
3373.02716677 2083.68524162 59.7 40 07 32 4670
3387.78595973 2076.71086401 63.1 40 07 36 4670
3390.57417564 2074.23176956 74.1 40 07 37 4670
3374.57293521 2050.69287305 65.0 40 07 40 4670
3380.47036739 2055.25673225 82.1 40 07 44 4670
3381.53903892 2088.54502795 75.2 40 07 56 4670
3382.97784814 2064.88534368 78.4 40 08 00 4670
3373.36691272 2066.90015269 68.7 40 08 05 4670
3373.17478074 2061.72434755 76.5 40 08 08 4670
3360.06933041 2073.97876162 45.9 40 08 12 4670
3371.53401534 2073.02043531 74.7 40 08 16 4670
3370.27465059 2088.72992917 51.7 40 08 21 4670
3364.6308506 2073.65064277 66.6 40 08 24 4670
3363.93795032 2070.41944998 68.1 40 08 28 4670
3354.60158485 2048.58284575 67.8 40 08 32 4670
3362.62203311 2049.07309922 55.9 40 08 36 4670
3361.72643749 2054.19011269 50.4 40 08 40 4670
3365.39703544 2054.11346224 49.7 40 08 44 4670
3364.72021313 2062.95775648 62.3 40 08 48 4670
3362.26647205 2077.60182912 57.2 40 08 52 4670
3360.33479115 2066.61492757 64.6 40 08 56 4670
3362.23304171 2050.43199238 102.8 40 09 00 4670
3356.44434408 2066.71298694 54.8 40 09 08 4670
3356.16438841 2068.33762523 58.5 40 09 12 4670
3351.01639168 2056.26773828 61.1 40 09 16 4670
3361.42419046 2038.84051001 51.9 40 09 20 4670
3364.56188322 2050.6938241 65.8 40 09 24 4670
3368.53363262 2049.23588182 57.9 40 09 28 4670
3366.23419486 2091.05018076 38.9 40 09 33 4670
3377.65625732 2082.8486697 57.3 40 09 36 4670
3392.62208667 2100.31334362 75.1 40 09 41 4670
3422.50374571 2133.69441988 63.1 40 09 44 4670
3450.23314236 2156.33118305 68.0 40 09 48 4670
3491.02131354 2177.78259775 65.0 40 09 52 4670
3489.42150483 2179.76790009 62.3 40 09 53 4670
3510.66774478 2188.6275526 87.9 40 09 57 4670
3513.96630013 2184.64621024 84.6 40 10 01 4670
3532.62293871 2185.50252514 63.4 40 10 08 4670
3533.73460294 2184.95320352 60.4 40 10 09 4670
3534.94668969 2180.52281335 70.9 40 10 12 4670
3551.5161655 2201.59767113 62.1 40 10 16 4670
3573.02106155 2215.43433899 78.8 40 10 20 4670
3575.15789589 2227.52773169 74.1 40 10 24 4670
3587.14539904 2238.2263958 64.4 40 10 28 4670
3585.81670274 2237.92354226 64.8 40 10 29 4670
3608.76703988 2253.33514555 58.7 40 10 32 4670
3609.7141652 2262.91451574 70.9 40 10 37 4670
3604.27565192 2296.6573555 55.4 40 10 41 4670
3601.71692434 2343.82296057 85.3 40 10 44 4670
3600.85097783 2343.14562324 83.0 40 10 45 4670
3559.49202515 2369.27522566 83.5 40 10 48 4670
3556.92787192 2370.42805784 82.3 40 10 49 4670
3501.38769549 2384.62453251 82.2 40 10 52 4670
3448.75197939 2367.09370317 129.5 40 10 57 4670
3384.31746254 2334.85086517 76.3 40 11 00 4670
3392.69735227 2336.31540192 111.4 40 11 08 4670
3405.46561264 2329.7880135 81.8 40 11 12 4670
3383.47774961 2336.26359717 87.4 40 11 16 4670
3385.82909363 2343.18247692 83.3 40 11 20 4670
3400.91852836 2329.05459345 89.6 40 11 24 4670
3400.28747618 2327.0952786 87.7 40 11 28 4670
3387.86517713 2331.97612683 101.8 40 11 32 4670
3384.8945679 2336.50037936 96.2 40 11 36 4670
3386.18806546 2334.08282213 94.7 40 11 40 4670
3366.53127639 2340.12359722 95.0 40 11 44 4670
3367.46575863 2339.99390881 91.5 40 11 45 4670
3440.00422003 2425.24216095 90.0 40 12 00 4670
3457.53139079 2435.54948836 114.2 40 12 08 4670
3455.32203234 2445.95909603 96.7 40 12 12 4670
3450.46244554 2467.18604048 114.0 40 12 16 4670
3439.08370859 2475.60882138 82.0 40 12 20 4670
3437.1736912 2485.20109473 96.4 40 12 24 4670
3437.23679048 2513.36626841 93.7 40 12 28 4670
3403.06829752 2541.85242662 106.4 40 12 32 4670
3349.47199367 2566.74851559 132.8 40 12 36 4670
3329.01603314 2547.99447803 104.6 40 12 40 4670
3344.71920456 2548.00080276 94.2 40 12 44 4670
3320.3181245 2566.8205244 75.0 40 12 48 4670
3329.80215119 2576.88074633 95.4 40 12 52 4670
3329.93672262 2586.28055826 90.5 40 12 56 4670
3316.12635147 2595.67970892 125.1 40 13 00 4670
3327.45170686 2631.12418157 107.6 40 13 08 4670
3310.31545812 2635.94563243 113.8 40 13 12 4670
3290.90603761 2636.87838339 116.0 40 13 16 4670
3328.21101143 2647.85752068 97.0 40 13 20 4670
3348.85888724 2665.00875975 140.6 40 13 24 4670
3373.90263356 2678.64663831 127.1 40 13 28 4670
3352.87061196 2681.82998136 139.5 40 13 32 4670
3395.91384923 2743.31893533 160.3 40 13 40 4670
3414.58765791 2776.276938 154.5 40 13 44 4670
3420.80577923 2780.17836685 133.9 40 13 48 4670
3411.64427357 2792.82142445 138.2 40 13 52 4670
3433.31908394 2798.16598409 118.1 40 13 56 4670
3446.85405659 2819.65125892 127.3 40 14 00 4670
3450.74157263 2806.80322118 83.1 40 14 08 4670
3476.59740282 2807.10773175 143.6 40 14 12 4670
3477.59189794 2812.21977973 108.2 40 14 16 4670
3458.91468622 2811.02058544 89.8 40 14 20 4670
3496.52668638 2753.98252783 92.1 40 14 24 4670
3517.79112948 2770.72671067 96.9 40 14 28 4670
3543.16455579 2774.10385825 100.6 40 14 32 4670
3574.07599616 2767.38072581 97.2 40 14 36 4670
3568.34649639 2775.52312081 87.2 40 14 40 4670
3574.31107966 2783.07293156 97.1 40 14 44 4670
3569.51116916 2802.81827472 97.9 40 14 48 4670
3587.20695777 2822.105411 134.0 40 14 52 4670
3594.26471524 2858.66415925 123.1 40 14 57 4670
3611.48905267 2846.96498221 136.6 40 15 00 4670
3594.86120533 2867.9217169 100.1 40 15 05 4670
3625.41133208 2874.38978549 120.4 40 15 09 4670
3596.21251458 2895.2617103 95.0 40 15 13 4670
3725.15141453 2920.40396632 102.0 40 15 45 4670
3723.67874372 2903.44712841 112.7 40 15 48 4670
3729.07091183 2873.87304947 137.9 40 15 56 4670
3743.23836209 2883.20763177 109.5 40 16 00 4670
3779.73522071 2872.1237007 152.5 40 16 08 4670
3781.69491744 2867.58515071 141.9 40 16 12 4670
3792.80337796 2878.18154868 142.3 40 16 16 4670
3827.08470166 2889.59375616 143.6 40 16 20 4670
3826.84715848 2895.08886989 123.8 40 16 24 4670
3833.85442705 2903.00701767 137.5 40 16 28 4670
3837.92187087 2933.10929352 132.3 40 16 32 4670
3828.71613636 2932.20593734 151.0 40 16 36 4670
3855.40056369 2951.51122421 133.2 40 16 45 4670
3894.17346954 2940.0034965 123.2 40 16 48 4670
3908.21046682 2908.12412871 83.7 40 16 53 4670
3890.65643406 2892.6302148 138.5 40 16 56 4670
3889.43248255 2887.13037292 138.6 40 17 00 4670
3874.03281012 2874.86134825 137.0 40 17 08 4670
3893.52469481 2838.222512 117.0 40 17 12 4670
3878.53648626 2824.43985749 137.0 40 17 16 4670
3876.67026231 2813.66321938 127.0 40 17 20 4670
3859.98590565 2801.06936488 127.3 40 17 24 4670
3843.98289626 2812.25266301 149.4 40 17 28 4670
3845.98982393 2810.10282 140.7 40 17 29 4670
3833.81445628 2830.39932358 134.8 40 17 32 4670
3828.72231157 2835.12679088 152.1 40 17 36 4670
3843.53942875 2837.25362118 153.7 40 17 40 4670
3843.42392781 2838.98937138 149.2 40 17 44 4670
3842.54127494 2836.68643014 147.4 40 17 48 4670
3841.01075173 2844.43321833 159.4 40 17 52 4670
3841.55753145 2841.85844603 156.4 40 17 56 4670
3842.90564501 2842.94649986 154.9 40 18 00 4670
3835.67270118 2830.05147179 143.1 41 06 36 4670
3826.96624887 2824.26204797 143.0 41 06 40 4670
3823.03463075 2823.51950255 132.3 41 06 44 4670
3827.57238833 2833.91773911 145.6 41 06 48 4670
3800.33169883 2830.29108725 146.4 41 06 52 4670
3787.61005753 2812.2141928 123.6 41 06 56 4670
3763.36591237 2782.43376652 118.2 41 07 00 4670
3712.72576736 2780.0696129 121.0 41 07 08 4670
3711.71345453 2777.08065436 116.4 41 07 09 4670
3687.79566497 2755.10836209 105.0 41 07 12 4670
3669.6820974 2735.88617885 101.5 41 07 17 4670
3648.38478191 2725.93147907 120.5 41 07 21 4670
3636.83760112 2698.02778369 103.5 41 07 24 4670
3618.30936283 2688.10415769 107.6 41 07 29 4670
3579.67895105 2634.96697104 98.9 41 07 32 4670
3586.62225883 2598.02213569 120.3 41 07 36 4670
3561.92485075 2562.18057086 66.9 41 07 40 4670
3554.06572736 2532.14353928 102.0 41 07 44 4670
3506.22177064 2456.550925 86.3 41 07 48 4670
3466.09634842 2400.03636535 104.6 41 07 52 4670
3399.47499573 2330.28845113 123.7 41 07 56 4670
3383.3843275 2344.80014424 108.9 41 08 00 4670
3404.5882601 2349.71187311 104.6 41 08 08 4670
3387.84251522 2325.36331411 100.1 41 08 12 4670
3376.21602937 2304.92369611 66.8 41 08 17 4670
3401.34290387 2227.98498627 46.3 41 08 21 4670
3390.19473173 2192.08769473 34.1 41 08 24 4670
3373.52899708 2118.96216866 74.8 41 08 29 4670
3371.43086275 2067.51317386 47.9 41 08 32 4670
3364.84152718 2073.06524206 66.3 41 08 36 4670
3366.14517242 2081.15290269 66.4 41 08 40 4670
3363.09404243 2083.37681628 63.6 41 08 44 4670
3357.68474391 2067.13718661 67.0 41 08 48 4670
3382.49937412 2056.49071194 57.4 41 08 52 4670
3378.72595464 2047.54362726 52.7 41 08 56 4670
3365.39552249 2034.09831299 52.4 41 09 01 4670
3377.22219485 2040.17409794 44.9 41 09 04 4670
3398.34915482 2004.19273015 94.3 41 09 08 4670
3373.82785391 2012.46265396 10.6 41 09 13 4670
3354.90570574 1974.57202641 63.2 41 09 20 4670
3385.27794648 1947.76544487 71.0 41 09 24 4670
3422.36176521 1932.07175675 48.6 41 09 29 4670
3423.47021474 1946.17439335 46.7 41 09 32 4670
3431.8269775 1944.6089359 52.2 41 09 36 4670
3415.03249545 1931.92652026 43.7 41 09 40 4670
3375.15397413 1911.14163729 54.6 41 09 44 4670
3413.94078658 1919.44947784 55.5 41 09 48 4670
3432.71420215 1918.20506765 46.9 41 09 52 4670
3427.32853963 1942.4049489 39.0 41 09 56 4670
3469.12674882 1960.8185853 62.5 41 10 00 4670
3496.30764333 1986.60515701 60.9 41 10 08 4670
3480.73284521 2018.31382985 52.1 41 10 12 4670
3458.68132618 2037.67186901 71.2 41 10 17 4670
3437.6708451 2061.35698508 86.0 41 10 21 4670
3384.02036789 2078.98776656 92.0 41 10 24 4670
3372.40497676 2089.21228448 79.7 41 10 33 4670
3373.36527146 2081.06556232 84.5 41 10 36 4670
3373.09973111 2078.21172001 85.0 41 10 37 4670
3376.2762047 2057.53225612 67.5 41 10 40 4670
3376.07248866 2049.12745102 35.4 41 10 44 4670
3371.95695691 2050.87244013 77.0 41 10 48 4670
3375.17247751 2055.6156535 117.5 41 10 52 4670
3400.33826898 2034.88533895 69.0 41 10 56 4670
3404.70946959 2032.23441202 45.5 41 11 00 4670
3429.17730427 2026.91684665 36.9 41 11 08 4670
3430.01224523 2020.1630405 26.5 41 11 12 4670
3458.32283397 2019.32533628 64.4 41 11 16 4670
3497.04394375 2041.1681717 66.7 41 11 20 4670
3508.89342414 2036.74993929 71.1 41 11 24 4670
3535.87043398 2020.07280006 58.4 41 11 28 4670
3546.41872441 2013.63781036 47.6 41 11 32 4670
3562.57575803 2009.27770861 43.2 41 11 36 4670
3581.89717667 2011.88335865 45.9 41 11 40 4670
3586.60210867 2014.79574947 67.1 41 11 44 4670
3618.53154231 2006.08540155 56.2 41 11 48 4670
3641.1809192 2016.04439205 57.0 41 11 52 4670
3646.50482401 2007.6242339 42.5 41 11 56 4670
3685.46758993 2015.855521 68.9 41 12 00 4670
3700.60827537 2002.94428102 81.8 41 12 08 4670
3772.55169655 1983.21662604 60.7 41 12 16 4670
3769.36454536 1976.50512415 68.2 41 12 20 4670
3779.81862496 1972.03822896 81.9 41 12 24 4670
3809.48466652 1987.06247152 67.9 41 12 28 4670
3838.15209102 1981.23898074 60.3 41 12 32 4670
3856.77568987 1999.15799095 75.4 41 12 36 4670
3879.67631026 2009.5713192 70.3 41 12 40 4670
3916.2182142 2032.40278062 66.0 41 12 44 4670
3933.13665799 2064.47070522 77.0 41 12 48 4670
3950.66834455 2097.19305267 69.9 41 12 52 4670
3966.49051542 2104.64209568 74.8 41 12 56 4670
3985.87043213 2116.32685263 70.2 41 13 00 4670
4017.76192887 2146.53020816 83.5 41 13 08 4670
4022.5932256 2161.31948151 82.0 41 13 12 4670
4021.43180975 2197.61951549 75.3 41 13 16 4670
4014.59676753 2204.36496624 84.3 41 13 20 4670
4016.43378211 2230.96567694 90.9 41 13 24 4670
4027.75861543 2232.47305159 114.6 41 13 28 4670
4077.49116611 2264.22705811 115.9 41 13 32 4670
4088.38709028 2279.41195512 128.9 41 13 36 4670
4073.50908828 2282.44900272 81.3 41 13 40 4670
4072.30345388 2291.65651164 98.0 41 13 44 4670
4090.21939387 2304.0553749 89.6 41 13 48 4670
4089.33713509 2298.23594815 98.6 41 13 52 4670
4098.5030038 2297.92282433 87.1 41 13 56 4670
4132.50147301 2315.38311531 90.2 41 14 00 4670
4212.71967238 2343.04504344 93.4 41 14 08 4670
4221.45156146 2300.3226407 103.8 41 14 12 4670
4234.80540299 2306.43683381 82.2 41 14 16 4670
4232.528683 2300.27007927 92.3 41 14 20 4670
4233.00866211 2297.9715454 92.7 41 14 24 4670
4212.65600173 2305.04912718 75.3 41 14 28 4670
4237.78037442 2310.77020348 105.1 41 14 32 4670
4249.34547778 2289.00107346 126.7 41 15 00 4670
4273.50464491 2283.99266173 123.6 41 15 09 4670
4302.19137421 2312.84787012 123.0 41 15 12 4670
4296.8589271 2340.80763478 114.9 41 15 16 4670
4335.53871234 2348.07664759 149.3 41 15 20 4670
4319.84818351 2354.29570644 107.2 41 15 24 4670
4328.40141947 2370.07022507 102.0 41 15 28 4670
4345.08206992 2390.60399384 96.0 41 15 32 4670
4339.5243975 2396.52417689 82.5 41 15 36 4670
4332.24032361 2392.63020055 80.9 41 15 40 4670
4308.8644336 2369.60875888 106.1 41 15 44 4670
4270.87229318 2353.617139 91.5 41 15 48 4670
4254.4232691 2322.63423231 115.4 41 15 52 4670
4226.65771607 2304.53054337 94.5 41 15 56 4670
4215.52683401 2304.218014 88.7 41 16 00 4670
4184.85268398 2278.24260772 108.3 41 16 08 4670
4181.80717448 2278.71929743 107.1 41 16 09 4670
4176.7179332 2268.94954558 112.9 41 16 12 4670
4193.9602992 2241.64761908 111.6 41 16 16 4670
4178.77655294 2230.50712804 86.6 41 16 20 4670
4180.01412127 2228.41009452 101.0 41 16 24 4670
4213.08972804 2218.68659648 98.5 41 16 28 4670
4207.19355917 2190.02695393 109.8 41 16 32 4670
4213.23748361 2179.87306671 96.1 41 16 36 4670
4219.49042931 2156.08519284 97.9 41 16 40 4670
4209.05295683 2155.42105786 93.6 41 16 44 4670
4225.4400813 2154.67797581 101.0 41 16 48 4670
4291.04088573 2230.47290761 84.1 41 16 52 4670
4312.57968495 2230.39900009 92.6 41 16 56 4670
4322.14970586 2251.17508332 88.3 41 17 00 4670
4378.03938024 2275.08714332 102.5 41 17 08 4670
4373.20528914 2274.75077142 101.0 41 17 09 4670
4386.96666182 2256.87020066 73.1 41 17 12 4670
4408.45523064 2285.81271603 95.5 41 17 17 4670
4404.54860246 2290.8978339 93.3 41 17 20 4670
4413.13792752 2292.16422366 79.6 41 17 24 4670
4422.91661495 2299.41692464 88.6 41 17 28 4670
4418.35873151 2305.39563569 81.9 41 17 32 4670
4402.76330194 2333.08986184 84.9 41 17 36 4670
4407.29319631 2366.20154807 96.5 41 17 40 4670
4437.39293635 2362.57267324 95.6 41 17 44 4670
4442.28016646 2363.46213355 97.8 41 17 45 4670
4449.26953016 2410.7362244 100.4 41 17 48 4670
4440.58407259 2432.31561088 82.1 41 17 52 4670
4448.70038488 2470.94590472 113.8 41 17 56 4670
4443.5434026 2471.91333205 83.0 41 18 00 4670
4428.86006897 2479.30777654 121.0 41 18 08 4670
4430.28413337 2477.31087859 120.7 41 18 12 4670
4429.11033581 2480.07160021 120.9 41 18 16 4670
4428.33113062 2479.75944251 100.3 42 06 36 4670
4407.6159785 2480.03498982 107.3 42 06 40 4670
4372.22399271 2478.93593614 83.3 42 06 44 4670
4361.6373401 2487.01824544 117.4 42 06 48 4670
4349.42945265 2473.20020151 101.4 42 06 52 4670
4329.96132391 2461.69187204 107.2 42 06 56 4670
4320.958861 2425.19296178 111.9 42 07 00 4670
4293.07942037 2364.30495307 104.5 42 07 08 4670
4252.51317464 2342.35573353 91.8 42 07 12 4670
4227.58832683 2298.81651002 76.2 42 07 17 4670
4228.6301028 2296.09958837 80.3 42 07 20 4670
4238.76642328 2291.34427665 96.7 42 07 24 4670
4239.37059916 2291.41258383 90.8 42 07 25 4670
4236.60549662 2293.5267805 98.3 42 07 28 4670
4217.64700129 2307.82983349 83.4 42 07 33 4670
4222.87838702 2304.25289888 76.5 42 07 36 4670
4235.63135894 2299.10797524 132.2 42 07 41 4670
4239.92557522 2303.26869132 111.5 42 07 44 4670
4244.15073842 2308.39124092 135.6 42 07 49 4670
4233.95415646 2318.17780169 114.9 42 07 52 4670
4225.82711577 2326.85420197 119.4 42 07 56 4670
4228.47008296 2325.12664332 108.0 42 08 00 4670
4217.18536361 2341.76571666 109.5 42 08 08 4670
4220.027499 2346.39722395 83.2 42 08 12 4670
4204.44643572 2366.31769509 123.7 42 08 16 4670
4228.47035763 2375.89448922 74.6 42 08 21 4670
4212.19638956 2396.00069865 124.8 42 08 25 4670
4211.06122183 2417.3613134 111.2 42 08 28 4670
4214.63673308 2416.10121837 108.5 42 08 29 4670
4216.70216963 2426.42514233 103.8 42 08 33 4670
4226.56461508 2424.78733484 101.0 42 08 36 4670
4227.1300069 2443.59903644 99.5 42 08 41 4670
4211.02278964 2456.34107369 103.2 42 08 45 4670
4202.81262729 2456.76784567 79.2 42 08 49 4670
4209.4897017 2451.29360019 92.3 42 08 53 4670
4220.66769864 2440.44863905 111.5 42 08 57 4670
4220.72988372 2438.21509963 113.3 42 09 01 4670
4235.77932919 2429.73807188 99.2 42 09 04 4670
4234.21835007 2426.51509727 103.8 42 09 09 4670
4257.68997607 2379.33982773 135.1 42 09 12 4670
4255.58376285 2364.64780941 115.9 42 09 16 4670
4257.69888515 2359.64533659 97.5 42 09 20 4670
4267.08307383 2349.61286948 89.2 42 09 24 4670
4307.07547373 2362.13872104 110.5 42 09 29 4670
4333.0072426 2369.63178352 93.0 42 09 32 4670
4359.05453531 2378.77290025 87.5 42 09 37 4670
4391.14384282 2385.12488071 89.1 42 09 40 4670
4404.40423725 2396.31451676 97.8 42 09 45 4670
4395.84522544 2426.34273188 96.4 42 09 48 4670
4398.97091185 2421.47624235 96.6 42 09 49 4670
4411.76279312 2434.80963946 110.8 42 09 53 4670
4399.66607732 2464.60520659 93.4 42 09 57 4670
4400.65155309 2516.47103761 107.1 42 10 01 4670
4426.32332324 2536.31526612 114.4 42 10 04 4670
4446.64026259 2533.45083618 103.6 42 10 08 4670
4449.59806297 2536.2913238 72.4 42 10 13 4670
4457.59968479 2522.25136603 112.8 42 10 16 4670
4473.93414278 2513.99976211 107.4 42 10 20 4670
4501.35465054 2513.0825479 113.8 42 10 24 4670
4512.43052095 2523.54635442 98.0 42 10 28 4670
4550.93932055 2542.79101241 97.8 42 10 33 4670
4552.34983994 2544.96299163 97.1 42 10 36 4670
4559.6453954 2548.69118045 95.2 42 10 40 4670
4583.0920534 2566.77004737 83.9 42 10 44 4670
4585.66706588 2569.04533729 107.1 42 10 48 4670
4604.15349731 2585.02916341 87.9 42 10 53 4670
4586.55395863 2600.4533319 104.6 42 10 56 4670
4548.97198771 2634.16905738 97.6 42 11 00 4670
4485.72639005 2638.82910981 95.2 42 11 08 4670
4465.86271275 2623.95773922 91.1 42 11 12 4670
4455.17692886 2618.58195143 100.9 42 11 16 4670
4426.75935437 2635.54130012 97.3 42 11 20 4670
4407.49157218 2626.66540426 107.1 42 11 24 4670
4366.50111756 2623.78991901 116.6 42 11 28 4670
4356.92096488 2640.03639171 94.1 42 11 32 4670
4339.80292908 2662.8932804 124.5 42 11 36 4670
4332.14206873 2649.83088557 99.9 42 11 40 4670
4307.28116787 2637.48675505 137.1 42 11 44 4670
4319.965858 2595.78347649 103.2 42 11 48 4670
4326.24834822 2606.92833803 112.5 42 11 52 4670
4327.55516698 2597.03555335 124.1 42 11 56 4670
4302.3522473 2595.26189087 115.4 42 12 00 4670
4311.1880206 2591.67454819 130.4 42 12 08 4670
4311.00974039 2575.49592884 165.5 42 12 12 4670
4331.2212338 2594.95746266 123.7 42 13 00 4670
4350.1862076 2588.79327853 126.5 42 13 45 4670
4358.14243542 2578.56821355 137.4 42 13 48 4670
4392.15828041 2549.94960178 130.7 42 13 52 4670
4411.24610718 2546.5724909 117.2 42 13 56 4670
4412.65882348 2548.0699253 111.2 42 14 00 4670
4413.08731456 2544.7096446 104.2 42 14 09 4670
4403.88199738 2553.80271648 99.0 42 14 12 4670
4397.36252838 2564.88391465 111.8 42 14 16 4670
4403.04293099 2555.00532871 125.3 42 14 20 4670
4394.63315153 2555.99537516 129.1 42 14 24 4670
4345.03657102 2560.41246602 81.1 42 14 28 4670
4336.83849369 2509.70646091 123.3 42 14 32 4670
4340.19607942 2490.94065342 137.5 42 14 36 4670
4306.87032795 2486.36505149 136.0 42 14 40 4670
4310.40204523 2451.17848942 149.7 42 14 44 4670
4295.02555575 2445.28992286 127.5 42 14 48 4670
4295.21261786 2445.2131227 127.2 42 14 49 4670
4278.79383964 2425.25524651 121.5 42 14 52 4670
4278.34526745 2424.6455949 106.5 42 14 56 4670
4298.14585949 2367.53929912 153.9 42 15 00 4670
4221.27192566 2304.88906328 107.4 42 15 08 4670
4230.58188464 2317.75772015 98.5 42 15 12 4670
4226.09920891 2314.1050678 100.6 42 15 13 4670
4220.00402027 2302.78391052 95.6 42 15 16 4670
4221.27978058 2292.29388669 103.1 42 15 20 4670
4209.78955764 2290.96284747 70.1 42 15 24 4670
4223.3573544 2295.48535972 81.5 42 15 28 4670
4222.11299739 2303.06719899 55.2 42 15 32 4670
4200.0376024 2305.97029101 23.3 42 15 36 4670
4261.26675165 2252.28251623 93.6 42 15 40 4670
4237.38468173 2226.04157961 86.8 42 15 44 4670
4233.04425127 2185.27832868 106.1 42 15 48 4670
4217.04290055 2155.14837927 85.4 42 15 52 4670
4230.06252205 2138.9461898 98.3 42 15 56 4670
4243.93714906 2113.23678894 103.7 42 16 00 4670
4267.99538788 2112.27530667 98.2 42 16 08 4670
4279.8086796 2105.49074059 81.9 42 16 12 4670
4287.78891181 2067.54301442 92.4 42 16 16 4670
4297.02213721 2060.03130892 88.3 42 16 20 4670
4273.3901515 2051.52840577 102.8 42 16 24 4670
4243.38088714 2071.25835271 105.2 42 16 28 4670
4223.55871209 2063.80729061 101.3 42 16 32 4670
4197.92611391 2041.91762553 83.8 42 16 36 4670
4135.96088625 2020.8281422 106.2 42 16 40 4670
4119.69126047 2025.99489566 106.3 42 16 44 4670
4113.30675112 2046.31010374 61.2 42 16 49 4670
4120.53741968 2066.72468349 95.6 42 16 53 4670
4099.03860011 2064.60932908 53.6 42 16 56 4670
4057.4510555 2059.2995241 89.9 42 17 00 4670
3994.69914667 2023.21292032 56.7 42 17 08 4670
3963.41492417 2046.4554198 107.5 42 17 12 4670
3890.11625257 2080.88563206 111.1 42 17 16 4670
3890.73302888 2080.45635921 110.4 42 17 17 4670
3867.63957271 2092.32448509 77.6 42 17 20 4670
3874.77536195 2087.7252552 103.2 42 17 24 4670
3859.95193984 2090.86208925 103.1 42 17 25 4670
3867.44134247 2092.45654182 104.2 42 17 28 4670
3871.72178723 2094.09591626 102.5 42 17 32 4670
3868.18505468 2093.55369792 99.4 42 17 36 4670
3865.96449696 2093.78980065 97.3 42 17 40 4670
3866.31425007 2094.37701064 99.0 42 17 44 4670
3867.33786785 2093.87164541 97.6 42 18 00 4670
3866.03577571 2102.33794928 87.6 43 06 32 4670
3872.40142372 2094.61784371 76.7 43 06 36 4670
3861.65049136 2133.14272842 82.3 43 06 44 4670
3879.63909165 2140.10112247 57.9 43 06 48 4670
3885.72208493 2165.43279675 87.6 43 06 52 4670
3863.59879572 2186.54863423 82.6 43 06 56 4670
3849.03444263 2180.93934073 92.9 43 07 00 4670
3794.21106056 2173.81773686 80.8 43 07 08 4670
3780.09040517 2187.34042781 116.5 43 07 13 4670
3753.93808768 2186.83576751 119.5 43 07 16 4670
3684.18885153 2170.34414513 54.4 43 07 20 4670
3660.5759738 2169.53811632 60.0 43 07 24 4670
3521.18173632 2131.44684412 81.2 43 07 33 4670
3437.08916174 2088.42532478 71.8 43 07 36 4670
3377.97121 2056.69729737 69.8 43 07 40 4670
3372.13504594 2067.23898826 64.4 43 07 44 4670
3384.34962314 2085.9443662 103.9 43 07 48 4670
3393.94184017 2076.08931284 109.4 43 07 52 4670
3405.01050946 2071.84546779 117.1 43 07 56 4670
3426.1806616 2094.11828676 73.9 43 08 01 4670
3424.21642113 2117.13491148 73.3 43 08 04 4670
3403.89927246 2147.34654595 113.9 43 08 09 4670
3411.52824497 2177.26113729 91.0 43 08 13 4670
3411.54798253 2218.90598035 76.6 43 08 16 4670
3392.68021057 2293.86332647 107.2 43 08 21 4670
3389.55262237 2350.54809941 115.3 43 08 25 4670
3387.86261324 2366.89757733 124.3 43 08 28 4670
3407.0134551 2350.75914465 82.6 43 08 32 4670
3396.76239369 2326.35409229 93.5 43 08 36 4670
3376.26720676 2323.15865579 98.6 43 08 40 4670
3368.51942363 2326.73864828 77.9 43 08 44 4670
3386.73251057 2339.04965916 105.4 43 08 48 4670
3419.11481325 2349.99088022 106.9 43 08 52 4670
3435.09091658 2367.63577151 84.9 43 08 56 4670
3460.14033482 2372.74790848 98.3 43 09 00 4670
3572.90532277 2377.41300965 92.0 43 09 09 4670
3576.91209758 2358.27330198 81.6 43 09 12 4670
3609.07031311 2346.6886122 77.6 43 09 16 4670
3636.21900677 2351.68599444 75.3 43 09 20 4670
3633.95165661 2352.80660538 74.4 43 09 21 4670
3712.27545647 2358.01341958 126.6 43 09 25 4670
3698.89789341 2389.87286529 86.1 43 09 29 4670
3752.94852708 2377.57384331 102.7 43 09 37 4670
3792.98485706 2403.73394768 100.3 43 09 41 4670
3804.92767109 2441.83454211 49.4 43 09 45 4670
3885.51003932 2417.99936309 82.4 43 09 49 4670
3947.09377528 2380.19177396 92.1 43 09 53 4670
3955.70126082 2379.23544301 87.7 43 09 56 4670
4011.76409071 2346.2314202 82.6 43 10 00 4670
4069.35157424 2331.1023191 98.7 43 10 05 4670
4154.6635022 2316.26214485 109.1 43 10 09 4670
4231.93194772 2301.2965505 94.2 43 10 13 4670
4235.299848 2303.06570887 104.6 43 10 16 4670
4233.85572618 2301.08162375 107.4 43 10 20 4670
4231.33309153 2296.19681455 71.0 43 10 24 4670
4230.69162672 2294.07157569 66.0 43 10 28 4670
4225.24150658 2321.05784727 51.6 43 10 32 4670
4232.69935591 2315.42026157 78.7 43 10 36 4670
4235.89182135 2310.28858239 77.8 43 10 41 4670
4231.15923753 2312.54015733 83.6 43 11 00 4670
4320.01371418 2215.17395474 74.9 43 11 16 4670
4341.2929732 2210.42163236 68.8 43 11 20 4670
4351.04586606 2205.31124117 77.8 43 11 24 4670
4381.55494176 2180.55155414 80.8 43 11 28 4670
4423.9032758 2178.26725615 65.0 43 11 32 4670
4460.52947316 2195.31615332 64.2 43 11 36 4670
4484.34028962 2196.09013157 43.6 43 11 40 4670
4508.14177442 2186.20405404 70.1 43 11 44 4670
4520.31859414 2179.1553425 53.1 43 11 48 4670
4556.02067371 2155.92760642 51.6 43 11 52 4670
4575.73038317 2167.52528444 45.5 43 11 56 4670
4617.21660708 2163.40273777 54.0 43 12 00 4670
4655.29817945 2182.33643839 61.4 43 12 08 4670
4689.830528 2180.91165993 57.8 43 12 12 4670
4690.6086399 2178.18283039 46.8 43 12 16 4670
4692.42227602 2201.69833359 47.8 43 12 20 4670
4714.65449337 2228.32124875 70.3 43 12 24 4670
4709.52413081 2258.25000217 48.8 43 12 28 4670
4717.78549126 2275.88143959 54.6 43 12 32 4670
4730.38232325 2301.86482548 72.6 43 12 36 4670
4724.17544564 2335.04116894 70.3 43 12 40 4670
4715.43586706 2352.93797872 74.1 43 12 44 4670
4713.69673268 2360.57349551 66.8 43 12 48 4670
4707.76757658 2375.94713622 51.0 43 12 52 4670
4712.6265541 2409.15948571 84.9 43 12 56 4670
4740.23439331 2445.25463904 96.0 43 13 00 4670
4757.71097866 2450.76318808 78.7 43 13 04 4670
4760.1742662 2453.60209117 52.3 43 13 08 4670
4766.82047204 2457.6378326 52.7 43 13 09 4670
4794.76685553 2453.85846821 57.6 43 13 12 4670
4814.27113717 2471.1063383 107.0 43 13 16 4670
4814.62602294 2470.11226096 102.4 43 13 17 4670
4829.37226628 2477.17115135 72.0 43 13 20 4670
4844.25739044 2475.32869245 75.1 43 13 24 4670
4882.57048387 2487.16409074 84.8 43 13 28 4670
4892.40217151 2528.69735839 73.3 43 13 32 4670
4910.33296239 2533.06847337 63.2 43 13 36 4670
4920.70198921 2541.21895186 69.2 43 13 40 4670
4947.26814256 2536.08610745 76.0 43 13 44 4670
4971.0188884 2555.2277999 72.4 43 13 48 4670
4979.8995797 2585.0695371 72.4 43 13 52 4670
4984.59724136 2593.53328558 74.9 43 13 56 4670
4986.03175187 2611.92767126 84.1 43 14 00 4670
4989.91822109 2660.20918302 81.7 43 14 08 4670
4981.64662646 2676.1059441 87.9 43 14 12 4670
4983.06329016 2726.92277638 88.2 43 14 16 4670
4977.08719658 2760.03351002 72.0 43 14 20 4670
5011.25615472 2778.91066094 103.4 43 14 24 4670
4988.61211367 2828.16721134 93.6 43 14 28 4670
4988.85708962 2850.75981853 100.9 43 14 33 4670
4979.77548326 2858.95745895 106.2 43 14 36 4670
4989.69724056 2903.1229183 97.8 43 14 40 4670
4961.4734789 2911.16964962 86.6 43 14 44 4670
4986.40844165 2907.44698517 107.7 43 14 48 4670
4937.25049049 2925.709524 62.0 43 14 52 4670
4972.35674503 2916.60152899 77.9 43 14 56 4670
4957.74810236 2911.21278915 71.9 43 15 00 4670
4836.6700438 2911.95704376 113.4 43 15 09 4670
4778.61503517 2929.04073094 63.2 43 15 13 4670
4802.22611476 2926.90601517 103.5 43 15 17 4670
4781.65835601 2939.34577847 74.6 43 15 20 4670
4766.42221315 2951.1726012 90.7 43 15 24 4670
4735.7850665 2944.47111546 102.6 43 15 28 4670
4718.69740571 2947.83244505 98.1 43 15 32 4670
4706.3694564 2947.34998418 86.6 43 15 36 4670
4693.90575574 2985.19461155 92.9 43 15 40 4670
4673.46678028 2971.59291531 96.4 43 15 44 4670
4654.38104113 2960.87075219 98.5 43 15 48 4670
4650.021367 2929.5841395 94.1 43 15 52 4670
4641.07520976 2919.82386529 96.9 43 15 56 4670
4613.60181857 2933.70091571 111.5 43 16 00 4670
4607.1811089 2934.68631998 121.7 43 16 08 4670
4608.12317623 2918.71037153 84.1 43 16 12 4670
4609.10132125 2884.88670207 112.5 43 16 16 4670
4569.94621377 2865.13116148 107.6 43 16 20 4670
4527.9329252 2828.79022651 106.3 43 16 24 4670
4498.81729675 2834.02561657 111.8 43 16 28 4670
4451.4061113 2838.96936591 86.7 43 16 32 4670
4409.00967166 2825.82729285 107.3 43 16 36 4670
4378.91048661 2812.47085604 131.4 43 16 40 4670
4355.04932626 2854.40323101 141.4 43 16 44 4670
4355.09875823 2869.64149591 117.8 43 16 48 4670
4378.56952577 2890.40746145 122.9 43 16 52 4670
4387.5122598 2884.32135228 110.7 43 16 56 4670
4395.34067947 2889.75420026 113.7 43 17 00 4670
4380.40261308 2914.73024595 131.8 43 17 08 4670
4385.89674244 2921.59307033 133.2 43 17 12 4670
4400.76262724 2918.84363913 102.1 43 17 17 4670
4399.73517779 2923.91598534 124.3 43 17 20 4670
4411.65607346 2927.9245717 136.8 43 17 24 4670
4419.08522865 2924.33269222 123.1 43 17 28 4670
4408.23911578 2907.44486925 133.0 43 17 32 4670
4411.6863544 2908.45129732 130.3 43 17 36 4670
4413.76366121 2908.32534663 136.5 43 17 40 4670
4412.7776537 2907.40431909 130.3 43 17 44 4670
4410.87333095 2905.02063543 124.1 43 17 48 4670
4409.72478931 2906.77514832 131.7 43 18 00 4670
4402.37452911 2906.37530009 133.7 44 06 40 4670
4391.13784061 2921.77596196 115.8 44 06 44 4670
4387.74845845 2940.17674602 103.7 44 06 48 4670
4414.1007642 2963.55076014 138.8 44 06 52 4670
4426.22623537 2999.29686231 133.9 44 06 56 4670
4405.81854116 3050.47396369 117.4 44 07 00 4670
4398.33693095 3076.98918336 120.6 44 07 08 4670
4401.98887629 3086.0134245 120.7 44 07 13 4670
4378.6678137 3097.01792881 85.9 44 07 16 4670
4382.00453969 3091.44440825 91.6 44 07 20 4670
4389.40579793 3082.89839282 77.0 44 07 24 4670
4395.31944885 3082.38680974 121.1 44 07 28 4670
4389.74468382 3093.59270854 115.4 44 07 32 4670
4372.48680465 3146.01855917 113.9 44 07 36 4670
4336.35045825 3154.37174584 72.4 44 07 40 4670
4271.75941976 3157.40211756 81.6 44 07 44 4670
4233.60888416 3176.9286254 108.6 44 07 49 4670
4200.91945502 3183.01513721 92.6 44 07 52 4670
4190.76026558 3205.05420896 175.5 44 07 57 4670
4180.75160044 3197.6238628 104.0 44 08 00 4670
4143.32233627 3187.9040452 79.7 44 08 08 4670
4132.88434786 3180.70454168 63.4 44 08 13 4670
4119.99199465 3201.81694219 123.1 44 08 16 4670
4104.86834058 3155.30168643 120.4 44 08 20 4670
4093.12883654 3139.41735082 81.5 44 08 24 4670
4071.33740324 3143.00697836 131.9 44 08 28 4670
4081.3650388 3117.46203204 123.2 44 08 32 4670
4123.0783027 3073.46424146 104.1 44 08 36 4670
4086.85338368 3082.02747471 124.8 44 08 41 4670
4105.46206014 3070.43251381 108.5 44 08 45 4670
4111.98822488 3047.06573272 111.6 44 08 48 4670
4119.58760277 3041.79352006 116.6 44 08 52 4670
4123.35334658 3029.28792888 137.9 44 08 56 4670
4059.54408432 3031.79041497 112.4 44 09 00 4670
4090.14829738 2963.85999803 122.3 44 09 09 4670
4074.20760245 2955.80227452 151.7 44 09 13 4670
4056.82531366 2958.55473096 128.6 44 09 16 4670
4044.72233023 2908.97515194 131.0 44 09 20 4670
4040.04227994 2878.06360869 112.6 44 09 24 4670
4024.96177017 2841.89895817 108.7 44 09 29 4670
4046.24028659 2813.5042615 112.2 44 09 32 4670
4052.71485935 2812.85068357 104.2 44 09 37 4670
4062.70639642 2737.38925766 130.8 44 09 40 4670
4101.9082949 2712.2705423 120.4 44 09 44 4670
4129.36591315 2679.49476023 140.2 44 09 49 4670
4132.11384024 2641.97239829 136.3 44 09 53 4670
4148.69646151 2604.57226884 119.2 44 09 57 4670
4155.80618489 2557.13384632 123.0 44 10 00 4670
4150.81197989 2501.08616133 147.9 44 10 09 4670
4199.51212058 2451.16173816 104.7 44 10 12 4670
4200.47892703 2451.23122036 107.5 44 10 13 4670
4212.90531399 2458.6804397 112.1 44 10 17 4670
4223.67701239 2454.52432752 133.6 44 10 21 4670
4217.40579609 2422.93305603 101.2 44 10 24 4670
4224.88520071 2403.85992073 89.3 44 10 28 4670
4256.72768359 2350.76251376 91.1 44 10 32 4670
4279.8806928 2347.64178784 109.0 44 10 36 4670
4267.85905774 2337.36298317 134.0 44 10 40 4670
4260.99795884 2325.02198665 81.4 44 10 44 4670
4233.96735246 2320.88708473 172.9 44 10 49 4670
4211.47778601 2305.78620295 119.5 44 10 52 4670
4216.44456347 2305.86864864 119.9 44 10 56 4670
4202.44940649 2314.5370934 97.0 44 11 00 4670
4190.96732403 2310.69589158 37.8 44 11 05 4670
4190.06723411 2300.20987545 90.4 44 11 08 4670
4141.92214403 2253.36651759 89.1 44 11 12 4670
4127.99092878 2255.86476522 99.2 44 11 16 4670
4094.96055496 2265.21249826 62.1 44 11 20 4670
4104.05859311 2272.2749202 105.7 44 11 24 4670
4104.70680378 2265.5315668 75.8 44 11 28 4670
4107.48392717 2263.09671509 63.4 44 11 32 4670
4106.34805338 2267.72638874 71.1 44 11 36 4670
4105.0105909 2266.7378854 97.9 44 11 40 4670
4111.65096381 2252.2400778 99.0 44 11 44 4670
4109.31313832 2261.54344355 88.8 44 11 48 4670
4112.25978711 2257.66052748 78.2 44 11 52 4670
4108.31258779 2248.13776384 103.6 44 11 56 4670
4095.75714685 2239.79246376 89.7 44 12 01 4670
4042.04897843 2166.53551963 92.7 44 12 04 4670
4036.83031358 2145.80678134 89.9 44 12 08 4670
4036.23651615 2145.92649913 91.6 44 12 09 4670
4023.01834275 2125.02812376 76.0 44 12 12 4670
4038.36160671 2110.66904573 89.3 44 12 16 4670
4024.99479269 2084.76086451 87.3 44 12 20 4670
4045.56199405 2109.88510334 45.5 44 12 24 4670
4020.28359866 2083.7946242 71.5 44 12 28 4670
4019.55434347 2078.23003326 78.0 44 12 29 4670
4011.57163957 2069.46829767 49.9 44 12 32 4670
4016.32972898 2052.54265955 86.6 44 12 36 4670
4021.72592877 2052.37212926 92.8 44 12 40 4670
3996.5636271 2024.34687852 82.3 44 12 44 4670
4008.00885339 2005.64039723 80.3 44 12 48 4670
4003.11773987 2002.53936238 73.9 44 12 52 4670
4002.61095011 1999.54097438 78.0 44 12 56 4670
3987.22830918 1995.48818401 70.5 44 13 00 4670
3875.37021489 1930.84578667 61.5 44 13 24 4670
3841.47071664 1930.23865196 46.6 44 13 28 4670
3783.05993736 1917.73128204 73.8 44 13 32 4670
3745.35306254 1918.71536327 50.9 44 13 36 4670
3697.40125672 1944.49186148 47.9 44 13 40 4670
3649.95589776 1963.18180119 37.7 44 13 44 4670
3618.3596493 1987.82792476 41.6 44 13 48 4670
3561.86000721 1996.09414903 64.7 44 13 52 4670
3490.86300338 2025.68904032 57.4 44 13 56 4670
3408.10233038 2039.91965185 59.9 44 14 00 4670
3386.22883273 2055.19786284 61.1 44 14 08 4670
3361.01010782 2047.99527634 49.2 44 14 12 4670
3361.7438144 2045.37687031 47.1 44 14 16 4670
3367.48374626 2047.66225362 53.0 44 14 20 4670
3363.21473399 2045.87921865 50.4 44 14 24 4670
3385.87857425 2054.76546972 72.2 44 14 32 4670
3392.75735842 2071.94977306 68.3 44 14 36 4670
3384.58821431 2097.16909743 63.7 44 14 40 4670
3406.7405377 2101.08863471 114.5 44 14 44 4670
3399.29826263 2115.5728895 84.0 44 14 48 4670
3420.67666286 2117.53266179 116.1 44 14 52 4670
3405.82011141 2134.39264622 95.9 44 14 56 4670
3399.5430959 2148.7479554 70.5 44 15 00 4670
3408.58417797 2149.6506566 89.8 44 15 05 4670
3421.75531572 2168.18220309 89.2 44 15 08 4670
3428.82823899 2176.2552741 84.7 44 15 12 4670
3441.85671993 2228.83424336 65.6 44 15 16 4670
3456.9420369 2250.11438133 64.4 44 15 20 4670
3456.38443078 2259.46773353 61.4 44 15 25 4670
3461.54795459 2256.46550879 50.9 44 15 28 4670
3476.44936627 2270.01545552 91.0 44 15 32 4670
3472.08126312 2275.12127938 85.3 44 15 36 4670
3496.93620785 2286.03830674 78.8 44 15 40 4670
3522.11781332 2297.8852847 88.4 44 15 44 4670
3528.98090747 2319.90196516 88.4 44 15 48 4670
3550.06473686 2317.75831815 91.4 44 15 52 4670
3547.14253804 2344.75277414 91.1 44 15 56 4670
3536.6464687 2386.142572 91.3 44 16 00 4670
3564.2204642 2395.55346035 80.5 44 16 08 4670
3589.92998844 2414.04811471 90.7 44 16 12 4670
3590.93109659 2430.73801824 88.8 44 16 16 4670
3594.83471966 2440.17211216 112.4 44 16 21 4670
3608.56420228 2452.47983684 81.9 44 16 24 4670
3607.71213821 2454.3127329 82.2 44 16 25 4670
3663.9508004 2458.61887648 51.9 44 16 29 4670
3660.96648002 2446.95400334 88.6 44 16 32 4670
3684.681875 2446.58822557 76.5 44 16 36 4670
3695.27650881 2439.39042596 64.2 44 16 40 4670
3711.10633738 2451.24053033 78.2 44 16 44 4670
3727.07765512 2463.51130723 77.3 44 16 48 4670
3755.18485296 2471.12159199 73.5 44 16 52 4670
3780.15381719 2490.90779505 80.2 44 16 56 4670
3788.23535387 2503.07570694 114.0 44 17 01 4670
3821.53752698 2518.34398239 97.9 44 17 04 4670
3830.86439258 2536.19979877 87.7 44 17 08 4670
3861.41748427 2541.82761362 79.3 44 17 12 4670
3867.88740679 2559.61891546 97.5 44 17 16 4670
3891.14760853 2564.07313521 121.7 44 17 20 4670
3887.00604304 2577.27418763 112.5 44 17 24 4670
3899.07736842 2589.17857786 116.6 44 17 28 4670
3902.39264415 2593.6236026 109.8 44 17 32 4670
3909.7274268 2609.01810158 117.9 44 17 36 4670
3919.03969873 2627.96865349 153.7 44 17 41 4670
3927.00680155 2624.53323429 115.5 44 17 44 4670
3912.72807117 2656.37864947 105.6 44 17 48 4670
3915.66144546 2673.57244664 115.6 44 17 52 4670
3913.23986837 2661.22375875 98.7 44 17 56 4670
3913.18366407 2658.21576998 104.7 44 18 00 4670
3877.27346669 2613.53544253 106.7 44 18 08 4670
3846.24610458 2611.86487851 97.7 44 18 12 4670
3849.22207394 2612.49375306 117.6 44 18 16 4670
3849.13219726 2613.10165864 117.0 44 18 20 4670
3849.70645448 2615.62476444 118.1 44 18 28 4670
3854.22654275 2614.50039142 117.7 47 06 00 4670
3847.50096862 2618.00618681 107.2 47 06 36 4670
3838.22342094 2615.49917971 92.5 47 06 40 4670
3849.45953133 2620.62223255 106.2 47 06 44 4670
3858.60580578 2619.54598994 109.3 47 06 48 4670
3844.73488265 2630.6366662 104.0 47 06 52 4670
3860.86075517 2652.84925509 110.6 47 06 56 4670
3856.47286243 2664.07011036 108.9 47 07 00 4670
3884.12371929 2676.82105608 119.6 47 07 08 4670
3890.29942881 2676.84102754 122.6 47 07 12 4670
3889.79461773 2663.03886983 142.6 47 07 16 4670
3890.25321542 2663.94711816 139.6 47 07 17 4670
3882.91422113 2683.83904654 118.2 47 07 20 4670
3903.72229426 2726.13727759 99.5 47 07 24 4670
3930.86404414 2746.7821113 95.1 47 07 28 4670
3915.26640188 2778.71172013 144.9 47 07 32 4670
3922.56835348 2777.06556664 147.7 47 07 33 4670
3934.80600654 2788.4839592 106.6 47 07 37 4670
3933.04661643 2809.22329133 139.2 47 07 40 4670
3983.81445906 2806.08120429 117.8 47 07 45 4670
4005.30789623 2799.54908224 47.0 47 07 49 4670
4001.14171283 2820.34697336 177.3 47 07 53 4670
4026.95080793 2804.55107282 87.0 47 07 57 4670
4025.21228407 2812.04284835 124.5 47 08 01 4670
4049.61503214 2806.36058679 155.9 47 08 05 4670
4055.07375179 2817.39215206 137.1 47 08 08 4670
4052.08571115 2810.31633666 118.6 47 08 09 4670
4064.54183592 2825.51736031 96.5 47 08 13 4670
4093.63033396 2838.80392276 126.6 47 08 17 4670
4108.96724772 2829.73066088 123.2 47 08 20 4670
4104.68599741 2828.36769911 121.5 47 08 24 4670
4103.22549381 2828.0533399 142.0 47 08 28 4670
4159.06352391 2813.41639908 123.1 47 08 32 4670
4182.57082954 2802.61140326 135.6 47 08 37 4670
4200.70232087 2809.44881581 117.1 47 08 40 4670
4214.21548818 2820.594989 134.3 47 08 45 4670
4215.32365015 2824.51315884 141.3 47 08 49 4670
4241.5825242 2842.86634112 116.9 47 08 56 4670
4277.73270906 2840.48446916 127.3 47 09 00 4670
4320.69691954 2875.06995425 157.3 47 09 09 4670
4287.45097869 2886.63945315 123.8 47 09 12 4670
4348.94906359 2922.54574701 116.3 47 09 16 4670
4389.6220045 2938.50199403 137.8 47 09 20 4670
4390.18146127 2938.80238041 139.1 47 09 21 4670
4377.02628977 2990.02516334 124.8 47 09 25 4670
4398.71660486 3031.14339469 133.0 47 09 28 4670
4410.61382608 3089.79014866 110.4 47 09 32 4670
4412.10829406 3086.41121431 80.6 47 09 37 4670
4424.60780767 3088.1879478 90.1 47 09 41 4670
4423.15206968 3076.26254929 70.2 47 09 44 4670
4460.95561814 3109.47132367 121.6 47 09 49 4670
4475.62058214 3097.52090613 111.7 47 09 52 4670
4483.65662118 3076.24905346 63.1 47 09 56 4670
4475.63774177 3071.95455021 59.3 47 09 57 4670
4499.52152082 3067.02284434 119.2 47 10 00 4670
4534.01928788 3028.67479313 96.6 47 10 08 4670
4533.24817112 3029.25836728 96.3 47 10 09 4670
4528.55070235 3000.44770294 87.0 47 10 13 4670
4528.84503787 2997.79470675 136.3 47 10 21 4670
4523.24160566 2977.24152788 129.0 47 10 25 4670
4546.46519889 2952.314582 119.5 47 10 28 4670
4545.6317862 2931.50045601 93.6 47 10 32 4670
4533.83800762 2922.19539267 141.6 47 10 37 4670
4542.15847909 2911.47393342 100.2 47 10 41 4670
4530.29184719 2907.67558773 157.4 47 10 45 4670
4561.06123008 2887.24066396 115.8 47 10 49 4670
4579.94494971 2875.62467566 64.0 47 10 52 4670
4588.36729909 2877.50983373 70.3 47 10 56 4670
4627.92827125 2850.19221024 63.0 47 11 00 4670
4638.70064621 2845.81505768 115.6 47 11 08 4670
4667.17928521 2870.86594779 84.0 47 11 12 4670
4684.68940284 2876.1423769 93.4 47 11 16 4670
4710.67783125 2876.23802762 94.3 47 11 20 4670
4730.89076794 2905.27617174 85.6 47 11 24 4670
4722.51311513 2923.41742687 77.1 47 11 28 4670
4751.88074284 2935.27891961 99.9 47 11 32 4670
4759.82927146 2944.3061362 128.7 47 11 36 4670
4773.18841863 2962.19749509 99.9 47 11 40 4670
4804.24672499 2974.54003995 95.6 47 11 44 4670
4804.78059889 2979.31889918 105.6 47 11 48 4670
4814.55900659 2973.09184711 95.1 47 11 52 4670
4842.41204723 2974.24419227 95.2 47 11 56 4670
4872.73093769 2970.69382323 101.4 47 12 00 4670
4983.35718202 2902.9584785 90.9 47 12 08 4670
4993.03347352 2894.36468656 72.1 47 12 13 4670
5039.28152622 2939.43382905 94.6 47 12 16 4670
5053.23676051 3010.32898997 83.1 47 12 20 4670
5055.75723389 3150.46618966 89.0 47 12 24 4670
5044.29247248 3215.46178447 83.9 47 12 28 4670
5113.04078858 3292.13136329 65.2 47 12 32 4670
5228.56507419 3420.12016295 64.9 47 12 36 4670
5241.72786392 3471.05289154 45.7 47 12 40 4670
5246.75608027 3482.5477147 37.5 47 12 44 4670
5221.49810848 3501.13129087 43.9 47 12 48 4670
5225.06141918 3503.58679882 58.4 47 12 52 4670
5221.57859899 3506.76016053 48.5 47 12 56 4670
5198.49556158 3495.3611173 43.0 47 13 00 4670
5207.03641017 3484.48569329 63.5 47 13 08 4670
5250.64437707 3472.99511877 48.0 47 13 12 4670
5244.67529682 3460.22552869 9.4 47 13 16 4670
5255.29679356 3475.07821407 70.3 47 13 20 4670
5238.53289012 3466.85139679 36.7 47 13 24 4670
5257.58598951 3467.27863635 60.3 47 13 28 4670
5306.47434629 3460.7483934 44.3 47 13 48 4670
5326.80209929 3424.25660962 44.1 47 13 52 4670
5335.59021949 3401.63824044 57.3 47 13 56 4670
5347.34785853 3334.59786601 65.8 47 14 00 4670
5273.71788015 3413.41178441 53.1 47 14 08 4670
5258.03849975 3456.59792727 50.5 47 14 12 4670
5262.54263543 3477.13661917 71.5 47 14 16 4670
5257.08132894 3473.74601324 49.7 47 14 20 4670
5259.65732279 3462.25394595 46.5 47 14 24 4670
5238.14484522 3491.42137326 41.4 47 14 28 4670
5201.17181615 3513.69324759 47.5 47 14 32 4670
5200.77755309 3486.40040694 32.6 47 14 36 4670
5180.79635427 3500.9650303 44.9 47 14 40 4670
5172.60737024 3508.41357807 49.7 47 14 44 4670
5211.72595898 3478.57385118 58.2 47 15 00 4670
5256.56321449 3467.5296286 39.2 47 15 08 4670
5260.98331467 3470.08746578 45.4 47 15 12 4670
5248.70254064 3451.8676689 46.1 47 15 16 4670
5253.04922807 3419.75791232 62.3 47 15 20 4670
5258.122893 3393.84310693 56.4 47 15 24 4670
5273.56087701 3360.63063917 67.1 47 15 28 4670
5290.58872392 3331.85770094 61.0 47 15 32 4670
5293.34526236 3315.56698018 72.6 47 15 36 4670
5299.45264562 3292.78501946 80.8 47 15 40 4670
5284.98591711 3284.37771868 65.0 47 15 44 4670
5285.91890648 3284.70145752 69.3 47 15 45 4670
5277.27781984 3285.8895899 71.5 47 15 48 4670
5261.63915331 3303.17764335 69.7 47 15 52 4670
5253.97083706 3295.88734858 63.7 47 15 56 4670
5240.93252854 3311.03862894 57.2 47 16 00 4670
5242.88152213 3434.14450551 67.9 47 16 08 4670
5274.53568397 3462.38002512 48.2 47 16 12 4670
5265.5504516 3461.28904675 37.6 47 16 16 4670
5265.0503394 3469.72479235 54.4 47 16 20 4670
5253.15925495 3473.46778789 56.0 47 16 24 4670
5255.10391112 3460.13799966 42.2 47 16 28 4670
5248.18650192 3455.09496567 70.9 47 16 32 4670
5258.21678521 3452.48487236 51.2 47 16 36 4670
5280.31348313 3456.36116811 76.2 47 16 40 4670
5269.24119011 3431.51041771 33.1 47 16 44 4670
5262.1229249 3450.91633192 61.7 47 16 48 4670
5257.87574701 3449.2437139 60.2 47 16 52 4670
5269.06096539 3473.16594442 49.8 47 16 56 4670
5265.7469921 3471.75071593 55.9 47 17 00 4670
5286.32326177 3466.76445016 74.1 47 17 08 4670
5296.91514251 3447.00498505 56.3 47 17 12 4670
5289.03929626 3419.1900398 54.2 47 17 16 4670
5303.16949176 3412.88888404 37.0 47 17 20 4670
5307.20789027 3424.63481499 59.0 47 17 24 4670
5297.90419082 3413.40244799 66.1 47 17 29 4670
5292.86966183 3410.5550846 103.6 47 17 32 4670
5293.33785234 3405.16023048 90.8 47 17 33 4670
5295.71314619 3377.76586189 82.1 47 17 36 4670
5286.14306155 3353.90420104 66.7 47 17 40 4670
5289.7349413 3300.60452702 59.0 47 17 44 4670
5280.0039907 3285.59993681 101.9 47 17 48 4670
5237.56936266 3294.41826663 108.6 47 17 52 4670
5202.7881329 3257.95636146 100.7 47 17 57 4670
5210.67672499 3218.04006197 116.0 47 18 01 4670
5224.95679877 3216.32849939 114.5 47 18 04 4670
5272.74336866 3163.73731261 106.3 47 18 08 4670
5241.2131158 3205.06914928 219.2 47 18 12 4670
5266.84521323 3135.98414403 107.0 47 18 16 4670
5260.65498799 3130.33529483 111.7 47 18 20 4670
5259.19341072 3133.71431393 104.6 47 18 24 4670
5260.5508823 3131.92733019 112.1 47 18 28 4670
5257.12931304 3123.08066766 100.4 48 06 00 4670
5266.54498295 3130.34349783 111.7 48 06 28 4670
5265.29439686 3133.04865867 81.4 48 06 32 4670
5256.28865057 3144.9288529 86.8 48 06 36 4670
5258.40176448 3207.77931669 79.6 48 06 40 4670
5247.73052809 3271.95918644 76.4 48 06 44 4670
5238.9306085 3358.68171777 73.7 48 06 48 4670
